# .PCD v0.7 - Point Cloud Data file format
VERSION 0.7
FIELDS x y z normal_x normal_y normal_z curvature
SIZE 4 4 4 4 4 4 4
TYPE F F F F F F F
COUNT 1 1 1 1 1 1 1
WIDTH 583
HEIGHT 1
VIEWPOINT 0 0 0 1 0 0 0
POINTS 583
DATA ascii
0.46380001 -0.0037999998 -1.0454 -0.036599733 0.97470939 0.22045892 -1.8083373e-13
0.47450003 -0.0030000003 -1.0465 -0.040867705 0.97430545 0.22149198 -1.8083373e-13
0.48416671 -0.0030000003 -1.0446666 -0.036858998 0.97447377 0.22145496 -1.8083373e-13
0.49527273 -0.002636364 -1.0455455 -0.035045892 0.97354913 0.22577401 -1.8083373e-13
0.50463635 -0.0024545456 -1.0453637 -0.038522303 0.97316045 0.2268807 -1.8083373e-13
0.51433331 -0.0020000001 -1.0469999 -0.041422408 0.97253454 0.22904317 -1.8083373e-13
0.52485716 -0.0020000001 -1.0451429 -0.038969945 0.97256821 0.2293302 -1.8083373e-13
0.53516668 -0.0020000001 -1.0435001 -0.039775107 0.97281504 0.22814226 -1.8083373e-13
0.5448333 -0.0020000001 -1.0416666 -0.038804881 0.97289234 0.22797932 -1.8083373e-13
0.55000001 -0.0020000001 -1.041 -0.03734814 0.97311121 0.22728747 -1.8083373e-13
-0.18376191 0.0050476184 -1.049 -0.36370271 -0.22178641 0.9047271 -1.8083373e-13
-0.17516129 0.0044838721 -1.0456452 -0.36447564 -0.22241326 0.90426207 -1.8083373e-13
-0.16615999 0.0037200002 -1.04228 -0.36514184 -0.21951477 0.90470147 -1.8083373e-13
-0.16 0 -1.041 -0.36494112 -0.21902439 0.90490127 -1.8083373e-13
0.053307693 0.0039999997 -1.0458461 0.92455226 0.075663194 0.37346765 -1.8083373e-13
0.53849995 0 -1.05 -0.039111111 0.9737848 0.22408345 -1.8083373e-13
0.5448333 0 -1.0493332 -0.037103944 0.97381181 0.22430733 -1.8083373e-13
0.55433333 0 -1.0475 -0.03550116 0.97377276 0.22473584 -1.8083373e-13
0.56400001 0 -1.0458333 -0.034520462 0.9742583 0.22277594 -1.8083373e-13
0.57428569 0 -1.044143 -0.036937114 0.97461945 0.22079976 -1.8083373e-13
0.58549994 0.001 -1.0458572 -0.03569597 0.9755193 0.21699719 -1.8083373e-13
0.5944286 0.0014285715 -1.0459999 -0.039031934 0.97521567 0.21778667 -1.8083373e-13
0.60400003 0.0020000001 -1.0465 -0.040142596 0.97506088 0.21827725 -1.8083373e-13
-0.19244446 0.016555555 -1.0496668 -0.36473092 -0.22227 0.90419436 -1.8083373e-13
-0.18590002 0.014666663 -1.0474666 -0.36399519 -0.22305119 0.90429848 -1.8083373e-13
-0.17558824 0.014323526 -1.0433823 -0.36407325 -0.22281916 0.90432423 -1.8083373e-13
-0.16850001 0.0125 -1.0411667 -0.36497486 -0.22295365 0.90392756 -1.8083373e-13
0.053499997 0.014583333 -1.045 0.92941159 -0.043360531 0.36648872 -1.8083373e-13
-0.20200001 0.028999999 -1.05 -0.36375195 -0.22128142 0.90483099 -1.8083373e-13
-0.19490001 0.025500001 -1.0484334 -0.36336344 -0.22125037 0.90499467 -1.8083373e-13
-0.18506663 0.024999999 -1.0446 -0.36510774 -0.22278965 0.90391433 -1.8083373e-13
-0.17741175 0.023823528 -1.0418824 -0.36381179 -0.22407651 0.90411878 -1.8083373e-13
0.054235294 0.025235292 -1.0455884 0.92901397 -0.045934249 0.3671827 -1.8083373e-13
-0.20358332 0.035583332 -1.0494165 -0.36367181 -0.22135386 0.90484542 -1.8083373e-13
-0.19600001 0.034520008 -1.0466801 -0.36548916 -0.22188008 0.90398395 -1.8083373e-13
-0.18582143 0.034249999 -1.0426785 -0.36435106 -0.22231419 0.90433657 -1.8083373e-13
-0.17900001 0.030999999 -1.041 -0.36387643 -0.22329627 0.90428579 -1.8083373e-13
0.054538462 0.034076918 -1.0453846 0.92972797 -0.047483142 0.36517283 -1.8083373e-13
-0.21175 0.046750002 -1.05 -0.36520597 -0.22255073 0.90393353 -1.8083373e-13
-0.20503332 0.044366669 -1.0478667 -0.364696 -0.22292538 0.90404701 -1.8083373e-13
-0.19526666 0.043866668 -1.0441 -0.36477971 -0.22292806 0.90401268 -1.8083373e-13
-0.18830769 0.042769235 -1.0416155 -0.36501858 -0.223057 0.90388435 -1.8083373e-13
0.055000003 0.043916669 -1.0455834 0.93052703 -0.047945034 0.36307129 -1.8083373e-13
-0.21461903 0.055285722 -1.0490477 -0.36487705 -0.22287318 0.90398687 -1.8083373e-13
-0.20575002 0.05415624 -1.0458437 -0.3656013 -0.22170326 0.90398198 -1.8083373e-13
-0.19651999 0.053800002 -1.0422 -0.36406794 -0.22243051 0.90442204 -1.8083373e-13
0.055428572 0.054857142 -1.0452143 0.93155521 -0.047298465 0.36051047 -1.8083373e-13
-0.22246154 0.066230766 -1.0494616 -0.36489627 -0.22347715 0.90382999 -1.8083373e-13
-0.21499997 0.064699993 -1.0469335 -0.36395061 -0.22423872 0.90402263 -1.8083373e-13
-0.20548278 0.064344823 -1.0431724 -0.36567047 -0.22356157 0.90349621 -1.8083373e-13
-0.19933333 0.062166665 -1.0413333 -0.36547208 -0.22374822 0.90353018 -1.8083373e-13
0.056000002 0.064611115 -1.0453334 0.93255776 -0.044005789 0.35832885 -1.8083373e-13
-0.23199999 0.078000002 -1.05 -0.36474365 -0.22248176 0.90413702 -1.8083373e-13
-0.22516668 0.075333327 -1.048375 -0.36468518 -0.22302027 0.90402806 -1.8083373e-13
-0.21581249 0.074718744 -1.0448123 -0.36542246 -0.22262371 0.90382802 -1.8083373e-13
-0.20755556 0.07405556 -1.0416667 -0.36473501 -0.22223784 0.90420055 -1.8083373e-13
0.057 0.074999996 -1.0460833 0.93286222 -0.042263735 0.35774544 -1.8083373e-13
-0.23323528 0.084941171 -1.0492353 -0.36208931 -0.20829971 0.90857172 -1.8083373e-13
-0.22517861 0.084357128 -1.0462143 -0.35819769 -0.18891098 0.91433424 -1.8083373e-13
-0.21596153 0.084653847 -1.0424231 -0.36432329 -0.182807 0.91315401 -1.8083373e-13
-0.20999999 0.081 -1.041 -0.36324653 -0.22202405 0.90485203 -1.8083373e-13
0.056909088 0.084909089 -1.0446364 0.93286335 -0.043736801 0.35756525 -1.8083373e-13
-0.24249999 0.097500004 -1.04975 -0.37558016 0.0045789205 0.92677855 -1.8083373e-13
-0.23576665 0.094200008 -1.0480334 -0.36585543 0.011189368 0.93060446 -1.8083373e-13
-0.22587098 0.09387099 -1.0441935 -0.34673819 -0.051287904 0.93655866 -1.8083373e-13
-0.21877776 0.094000004 -1.0413334 -0.36204311 0.0025662018 0.93215775 -1.8083373e-13
0.057687491 0.094562501 -1.0458126 0.9291423 -0.015316851 0.36940497 -1.8083373e-13
-0.25099999 0.109 -1.05 -0.28623369 0.25747991 0.92291617 -1.8083373e-13
-0.24420835 0.10516665 -1.04875 -0.3957743 0.15775463 0.9046967 -1.8083373e-13
-0.23526664 0.1043 -1.0454001 -0.34417114 0.14876303 0.92704684 -1.8083373e-13
-0.22656524 0.10317391 -1.0420871 -0.35160783 0.10605683 0.93012035 -1.8083373e-13
0.058000002 0.10373333 -1.0456001 0.90571243 0.13233593 0.40270609 -1.8083373e-13
-0.24583332 0.11066667 -1.048 -0.35503256 0.22698323 0.90687954 -1.8083373e-13
-0.23518181 0.11127272 -1.0464545 -0.38443872 0.25874677 0.88614726 -1.8083373e-13
-0.22585714 0.11142857 -1.044 -0.21702439 0.58327073 0.78274882 -1.8083373e-13
-0.21540001 0.112 -1.0422001 -0.27181542 0.67245895 0.68841511 -1.8083373e-13
-0.19400001 0.114 -1.04925 -0.13100225 0.9123413 0.38790688 -1.8083373e-13
-0.1856 0.114 -1.0464 -0.15758413 0.89675874 0.4135105 -1.8083373e-13
-0.17580001 0.1136 -1.0432 -0.12229679 0.92826617 0.3512339 -1.8083373e-13
-0.169 0.113 -1.041 -0.094533727 0.91612953 0.38957673 -1.8083373e-13
-0.153 0.116 -1.05 -0.034299795 0.97397059 0.22406408 -1.8083373e-13
-0.14420001 0.116 -1.0470001 -0.039659951 0.97367632 0.22445807 -1.8083373e-13
-0.1345 0.115 -1.04375 -0.043332275 0.97288722 0.22718456 -1.8083373e-13
-0.12766667 0.115 -1.0413333 -0.037842702 0.97353852 0.22536778 -1.8083373e-13
-0.10660001 0.1178 -1.049 -0.042491883 0.97413093 0.2219536 -1.8083373e-13
-0.094750002 0.117 -1.045 -0.044393551 0.97336501 0.22492146 -1.8083373e-13
-0.086599998 0.117 -1.0420001 -0.037463509 0.97364926 0.22495244 -1.8083373e-13
-0.06425 0.119 -1.04925 -0.033707492 0.97369856 0.22533277 -1.8083373e-13
-0.055333331 0.11900001 -1.0461668 -0.035765316 0.97354656 0.22567202 -1.8083373e-13
-0.045499995 0.119 -1.0425 -0.03492742 0.97446859 0.22179076 -1.8083373e-13
-0.039999999 0.118 -1.041 -0.04174168 0.97408289 0.22230636 -1.8083373e-13
0.058500003 0.11466666 -1.0454167 0.83904195 0.36306581 0.40520599 -1.8083373e-13
-0.022 0.121 -1.05 -0.039742958 0.97399598 0.22305237 -1.8083373e-13
-0.015666666 0.121 -1.0473334 -0.041749191 0.97317654 0.22623971 -1.8083373e-13
-0.0049999999 0.1205 -1.0436667 -0.040304143 0.97399658 0.22294913 -1.8083373e-13
0.0020000001 0.12 -1.041 -0.04021984 0.97348601 0.22518325 -1.8083373e-13
0.024000002 0.123 -1.0486666 -0.040718224 0.97315723 0.22651054 -1.8083373e-13
0.034499999 0.12216666 -1.0448333 0.13483408 0.95441276 0.26630068 -1.8083373e-13
0.043250002 0.122 -1.04175 0.29032338 0.91287404 0.2870076 -1.8083373e-13
0.058499999 0.1215 -1.0447501 0.75945872 0.51174527 0.40167049 -1.8083373e-13
-0.46466669 -0.043333337 -1.0364444 -0.032308418 0.9734292 0.22669759 -1.8083373e-13
-0.45529994 -0.043499999 -1.0343 -0.032872427 0.97318429 0.22766599 -1.8083373e-13
-0.44516668 -0.043000001 -1.0356666 -0.034227926 0.97367609 0.22535162 -1.8083373e-13
-0.43414289 -0.042428575 -1.0359999 -0.037821524 0.97413123 0.22279534 -1.8083373e-13
-0.42559999 -0.042000003 -1.036 -0.036746871 0.97501701 0.21906953 -1.8083373e-13
-0.41550002 -0.041916672 -1.0345832 -0.041392237 0.9747234 0.21954699 -1.8083373e-13
-0.40566662 -0.041166667 -1.0353333 -0.043238401 0.97482073 0.21875766 -1.8083373e-13
-0.39516667 -0.041000005 -1.0346667 -0.04299533 0.97415644 0.22174445 -1.8083373e-13
-0.38499999 -0.041000001 -1.0332 -0.040378325 0.9730767 0.22691721 -1.8083373e-13
-0.37599999 -0.041000001 -1.0318 -0.037344698 0.97354853 0.22540753 -1.8083373e-13
-0.36866665 -0.041000001 -1.031 -0.036475036 0.97388202 0.22410597 -1.8083373e-13
-0.38533333 -0.039000001 -1.0395 -0.041336771 0.97337848 0.22544503 -1.8083373e-13
-0.37519997 -0.039000001 -1.0382 -0.036932938 0.97342318 0.22601607 -1.8083373e-13
-0.36516666 -0.039000001 -1.0365 -0.035201591 0.97319728 0.22726174 -1.8083373e-13
-0.35519999 -0.039000001 -1.0351999 -0.037260085 0.97352701 0.22551472 -1.8083373e-13
-0.34480003 -0.038600001 -1.036 -0.035262488 0.97334498 0.22661862 -1.8083373e-13
-0.3351818 -0.038454548 -1.0356363 -0.036648929 0.97370243 0.22485644 -1.8083373e-13
-0.32600001 -0.038444445 -1.0343333 -0.036076903 0.97412157 0.22312717 -1.8083373e-13
-0.31516665 -0.037999999 -1.0354999 -0.043756932 0.97343922 0.22472535 -1.8083373e-13
-0.30355555 -0.037111111 -1.0358889 -0.046333827 0.97280163 0.22695862 -1.8083373e-13
-0.29470003 -0.036499999 -1.0355999 -0.044939227 0.97218531 0.22986108 -1.8083373e-13
-0.28527272 -0.036454543 -1.0346364 -0.042263199 0.97276324 0.22791561 -1.8083373e-13
-0.27433336 -0.035999998 -1.0356668 -0.036071993 0.97324711 0.22691149 -1.8083373e-13
-0.26383337 -0.035666663 -1.0353333 -0.035100527 0.9740628 0.22353879 -1.8083373e-13
-0.25560004 -0.035000004 -1.0361 -0.032827217 0.97459918 0.22153738 -1.8083373e-13
-0.24575001 -0.035000004 -1.03475 -0.034021679 0.97456217 0.22151996 -1.8083373e-13
-0.23516665 -0.034000006 -1.0363334 -0.036282118 0.97435498 0.22207196 -1.8083373e-13
-0.2254 -0.034000002 -1.0347999 -0.040529292 0.97409898 0.22246027 -1.8083373e-13
-0.21518183 -0.033545457 -1.0361819 -0.048166569 0.97372055 0.22259428 -1.8083373e-13
-0.20580001 -0.033499997 -1.0351 -0.049742833 0.96947199 0.24010362 -1.8083373e-13
-0.19687501 -0.032625005 -1.035375 -0.065344006 0.93931538 0.33677414 -1.8083373e-13
-0.18533333 -0.032000002 -1.0353333 -0.11572552 0.91580296 0.38459384 -1.8083373e-13
-0.17487501 -0.031625003 -1.036 -0.15093334 0.83515018 0.5289076 -1.8083373e-13
-0.16575 -0.031500001 -1.0355 -0.24098715 0.79982907 0.54972595 -1.8083373e-13
-0.156 -0.031333335 -1.0351111 -0.22201337 0.72655499 0.65025228 -1.8083373e-13
-0.1454 -0.030999999 -1.0355999 -0.18638416 0.67586333 0.71307069 -1.8083373e-13
-0.1355 -0.031000001 -1.0341666 -0.19561321 0.63708436 0.74555951 -1.8083373e-13
-0.125 -0.031000001 -1.0324999 -0.27482814 0.5744983 0.77098709 -1.8083373e-13
-0.118 -0.030999999 -1.0315 -0.30493253 0.48940769 0.81700444 -1.8083373e-13
-0.14264287 -0.02357143 -1.0393572 -0.29593438 0.22877082 0.92740864 -1.8083373e-13
-0.13548148 -0.025259268 -1.0370001 -0.26246652 0.27708361 0.924303 -1.8083373e-13
-0.12550001 -0.025785716 -1.0330714 -0.31348017 0.27353701 0.90934467 -1.8083373e-13
-0.11933333 -0.026666665 -1.031 -0.35583037 0.32042134 0.8779037 -1.8083373e-13
0.047857143 -0.022714287 -1.0341429 0.66592133 0.57677734 0.47315612 -1.8083373e-13
0.054111108 -0.022888891 -1.0348889 0.56645817 0.69329268 0.44550022 -1.8083373e-13
0.063833334 -0.022 -1.0363334 0.2341809 0.91290373 0.33431455 -1.8083373e-13
0.074166663 -0.022 -1.0346667 0.037006583 0.96278733 0.2677145 -1.8083373e-13
0.084909089 -0.021545453 -1.0359998 -0.038372908 0.97265488 0.22906321 -1.8083373e-13
0.09458334 -0.021499999 -1.0349168 -0.041443639 0.97316039 0.22636539 -1.8083373e-13
0.10399999 -0.021 -1.0365999 -0.041269585 0.97355765 0.22468263 -1.8083373e-13
-0.15025 -0.013250001 -1.03975 -0.34971371 0.031124348 0.9363395 -1.8083373e-13
-0.14480951 -0.015571427 -1.038381 -0.34876162 0.041521143 0.93629128 -1.8083373e-13
-0.13534376 -0.015718747 -1.0346251 -0.29979596 0.13004576 0.9450981 -1.8083373e-13
-0.12723529 -0.01717647 -1.031706 -0.33465165 0.084350161 0.93855923 -1.8083373e-13
0.048250005 -0.016166665 -1.0356668 0.75002247 0.48624605 0.44836488 -1.8083373e-13
0.109 -0.02 -1.036 -0.044777453 0.97347009 0.22439012 -1.8083373e-13
0.11516666 -0.019999998 -1.035 -0.041248657 0.9738459 0.22343363 -1.8083373e-13
0.12555557 -0.019666664 -1.0355556 -0.041196451 0.97428364 0.22152711 -1.8083373e-13
0.13436364 -0.019454543 -1.0355455 -0.038618963 0.97492748 0.21914575 -1.8083373e-13
0.14325 -0.01925 -1.035625 -0.037533123 0.97511441 0.21850199 -1.8083373e-13
0.15449999 -0.018999999 -1.0354999 -0.036578201 0.97500455 0.21915345 -1.8083373e-13
0.1655 -0.0185 -1.0353749 -0.037836511 0.97537535 0.21728157 -1.8083373e-13
0.17483334 -0.017999997 -1.0356666 -0.037379667 0.97464627 0.22060725 -1.8083373e-13
0.18349999 -0.017750001 -1.035125 -0.042149097 0.97397232 0.22271357 -1.8083373e-13
0.19383334 -0.017000003 -1.0359999 -0.039975114 0.97426492 0.22183289 -1.8083373e-13
0.20383333 -0.017000003 -1.0345 -0.039496616 0.97332162 0.22601987 -1.8083373e-13
0.21433334 -0.016000001 -1.0360833 -0.040975351 0.97280717 0.22796319 -1.8083373e-13
0.22399998 -0.015909093 -1.035 -0.041501638 0.97237891 0.2296887 -1.8083373e-13
0.23483332 -0.015 -1.0363332 -0.039712209 0.97261947 0.22898534 -1.8083373e-13
0.24483334 -0.015 -1.0346667 -0.038681176 0.97325003 0.22646911 -1.8083373e-13
0.25519997 -0.014599999 -1.0357001 -0.038323335 0.97366238 0.22475085 -1.8083373e-13
0.26441666 -0.0145 -1.035 -0.037499756 0.97347426 0.22570251 -1.8083373e-13
0.27416667 -0.014 -1.0368333 -0.035591759 0.97429198 0.22245964 -1.8083373e-13
0.28416666 -0.014 -1.0353333 -0.038115505 0.97428513 0.22207139 -1.8083373e-13
0.29474998 -0.013499999 -1.035125 -0.036488853 0.9741562 0.22290865 -1.8083373e-13
0.30383334 -0.013 -1.0355 -0.035969738 0.97415435 0.22300129 -1.8083373e-13
0.31355557 -0.012444446 -1.0358889 -0.03837378 0.97355515 0.22520617 -1.8083373e-13
0.32516667 -0.012000001 -1.0355 -0.038466226 0.97249222 0.2297373 -1.8083373e-13
0.33500001 -0.012000001 -1.0338334 -0.040580839 0.97323394 0.22620548 -1.8083373e-13
0.34483334 -0.012000001 -1.0323333 -0.042876638 0.97395837 0.22263584 -1.8083373e-13
0.352 -0.011999999 -1.031 -0.042542335 0.97384739 0.22318469 -1.8083373e-13
-0.15342104 -0.0050526308 -1.0392104 -0.36383733 -0.14594167 0.91995835 -1.8083373e-13
-0.1454 -0.0059999996 -1.0362667 -0.35943317 -0.12954959 0.92413461 -1.8083373e-13
-0.13603334 -0.0064666662 -1.0325665 -0.36591545 -0.11915192 0.92298901 -1.8083373e-13
-0.12899999 -0.0099999998 -1.031 -0.35273775 -0.095876195 0.9307974 -1.8083373e-13
0.048499998 -0.0059999991 -1.0351666 0.89670473 0.16031016 0.41257888 -1.8083373e-13
0.33899999 -0.0099999998 -1.04 -0.04001734 0.97288173 0.22781508 -1.8083373e-13
0.34483328 -0.0099999988 -1.0393333 -0.041939907 0.97358638 0.22443438 -1.8083373e-13
0.35483333 -0.0099999988 -1.0375 -0.042429972 0.97345948 0.22489199 -1.8083373e-13
0.36450002 -0.0099999988 -1.0359999 -0.040022522 0.97423899 0.22193791 -1.8083373e-13
0.37433335 -0.0099999988 -1.0343333 -0.037212826 0.97444558 0.2215198 -1.8083373e-13
0.38472727 -0.0095454538 -1.0358181 -0.035500374 0.97468072 0.22076514 -1.8083373e-13
0.39363635 -0.0094545446 -1.0350909 -0.036136817 0.97412312 0.22311068 -1.8083373e-13
0.40400001 -0.0089999996 -1.0365 -0.038734879 0.97316378 0.22683015 -1.8083373e-13
0.41457146 -0.0089999987 -1.0347143 -0.039356254 0.97279948 0.22828098 -1.8083373e-13
0.42555556 -0.0083333338 -1.0353334 -0.037440334 0.97355175 0.22537775 -1.8083373e-13
0.43433335 -0.0079166666 -1.0350833 -0.040321022 0.97339064 0.22557685 -1.8083373e-13
0.44442859 -0.0069999998 -1.036857 -0.039656557 0.97361875 0.22470881 -1.8083373e-13
0.45483336 -0.0069999998 -1.0351666 -0.041909441 0.97341615 0.22517669 -1.8083373e-13
0.46544445 -0.006333333 -1.0356667 -0.041198269 0.97356212 0.22467631 -1.8083373e-13
0.47449997 -0.0059999996 -1.0354999 -0.039422147 0.97377986 0.22405075 -1.8083373e-13
0.48362499 -0.0054999995 -1.03575 -0.039200861 0.97436458 0.22153305 -1.8083373e-13
0.49416664 -0.0049999994 -1.0356666 -0.037020843 0.97477591 0.22009413 -1.8083373e-13
0.50512499 -0.0047499998 -1.0346251 -0.038668782 0.9741894 0.22239543 -1.8083373e-13
0.51491666 -0.0039999993 -1.0359167 -0.040374056 0.97423339 0.22189938 -1.8083373e-13
0.52419996 -0.0035999999 -1.0357001 -0.039431013 0.97443932 0.22116318 -1.8083373e-13
0.53533334 -0.0030000003 -1.0359999 -0.040493976 0.97398758 0.22295392 -1.8083373e-13
0.54500002 -0.0030000003 -1.0343333 -0.037110221 0.97384685 0.22415417 -1.8083373e-13
0.55472732 -0.0025454548 -1.0359091 -0.034592647 0.97340006 0.22648558 -1.8083373e-13
0.56400001 -0.0024166668 -1.0354167 -0.03653213 0.97315699 0.22722422 -1.8083373e-13
0.57499999 -0.0020000001 -1.0365 -0.036814667 0.97433621 0.22206672 -1.8083373e-13
0.58514279 -0.0020000001 -1.0347143 -0.038039584 0.97493505 0.21921349 -1.8083373e-13
0.59533334 -0.0020000001 -1.033 -0.042779461 0.9754473 0.21603811 -1.8083373e-13
0.60150003 -0.0020000001 -1.0319999 -0.037015658 0.97528625 0.21782242 -1.8083373e-13
-0.1622 0.0074 -1.0397999 -0.36531949 -0.22182626 0.90406573 -1.8083373e-13
-0.15497141 0.0044571436 -1.0375712 -0.36597407 -0.22256927 0.90361828 -1.8083373e-13
-0.14490001 0.0043000001 -1.0335 -0.36509791 -0.22258939 0.9039675 -1.8083373e-13
-0.13833334 0.0024444445 -1.0313333 -0.36633167 -0.22309458 0.9033438 -1.8083373e-13
0.048500001 0.0043333331 -1.0337499 0.92938906 -0.013072346 0.36887011 -1.8083373e-13
0.050999999 0.0052 -1.0397999 0.91967779 0.03879996 0.39075235 -1.8083373e-13
0.59633332 0 -1.04 -0.038620949 0.97555363 0.21634138 -1.8083373e-13
0.602 0 -1.03925 -0.041290056 0.97546303 0.21625675 -1.8083373e-13
-0.16453847 0.015230768 -1.0386924 -0.36470857 -0.22324626 0.90396285 -1.8083373e-13
-0.15455554 0.014500001 -1.0348889 -0.36573371 -0.22285759 0.9036445 -1.8083373e-13
-0.14594117 0.013411765 -1.031706 -0.36482134 -0.22301432 0.90397453 -1.8083373e-13
0.048666667 0.013666667 -1.0334445 0.9302665 -0.042589761 0.36440414 -1.8083373e-13
0.050999999 0.0145 -1.0386667 0.93012303 -0.04231533 0.36480209 -1.8083373e-13
-0.17338461 0.026153844 -1.0395385 -0.36441281 -0.22373077 0.90396237 -1.8083373e-13
-0.16563638 0.024575759 -1.0368788 -0.36557543 -0.22394168 0.90344054 -1.8083373e-13
-0.15546876 0.024531245 -1.0327814 -0.36564037 -0.2234128 0.9035452 -1.8083373e-13
-0.1485 0.021 -1.031 -0.36512214 -0.22317146 0.90381432 -1.8083373e-13
0.048999999 0.024666667 -1.0335 0.93045866 -0.046123434 0.36348218 -1.8083373e-13
0.050999999 0.024833331 -1.0374999 0.92996597 -0.0451556 0.36486197 -1.8083373e-13
-0.18166666 0.037666667 -1.04 -0.36472958 -0.22261058 0.90411115 -1.8083373e-13
-0.1751613 0.035483867 -1.0380323 -0.36577699 -0.22315879 0.90355265 -1.8083373e-13
-0.1655 0.034899998 -1.0343 -0.36484289 -0.22299613 0.90397024 -1.8083373e-13
-0.1582 0.033800002 -1.0316666 -0.36502528 -0.22280712 0.90394336 -1.8083373e-13
0.048999999 0.034833334 -1.0323334 0.93079048 -0.049450677 0.3621929 -1.8083373e-13
0.051666666 0.035888892 -1.0375556 0.93042904 -0.049807962 0.36307153 -1.8083373e-13
-0.18406668 0.045266673 -1.0391999 -0.3646161 -0.22286542 0.9040941 -1.8083373e-13
-0.17541933 0.044677425 -1.035871 -0.36555812 -0.22289567 0.90370613 -1.8083373e-13
-0.16623077 0.044769231 -1.0322309 -0.36514127 -0.22254331 0.90396148 -1.8083373e-13
0.048999999 0.043500002 -1.03125 0.93100071 -0.049771097 0.36160812 -1.8083373e-13
0.051749993 0.045166671 -1.0365832 0.93077672 -0.047957368 0.36242917 -1.8083373e-13
-0.192 0.055500001 -1.03975 -0.36509046 -0.22417194 0.90357947 -1.8083373e-13
-0.18519355 0.05399999 -1.0375483 -0.36389413 -0.22407465 0.90408605 -1.8083373e-13
-0.17567857 0.054357138 -1.0336072 -0.3641184 -0.22350031 0.90413797 -1.8083373e-13
-0.16874999 0.052874997 -1.03125 -0.36405993 -0.22344433 0.90417522 -1.8083373e-13
0.052090909 0.054181814 -1.0362729 0.93114024 -0.048297424 0.36144871 -1.8083373e-13
-0.20100001 0.068999998 -1.04 -0.36523694 -0.22234432 0.90397173 -1.8083373e-13
-0.19499999 0.064791664 -1.0388333 -0.36488619 -0.22228207 0.90412873 -1.8083373e-13
-0.18558826 0.063852936 -1.0352647 -0.36492649 -0.22149906 0.90430462 -1.8083373e-13
-0.17704999 0.063499987 -1.0319499 -0.36396506 -0.22120433 0.90476406 -1.8083373e-13
0.051999997 0.064000003 -1.0348332 0.93141758 -0.045883436 0.36104858 -1.8083373e-13
-0.20293333 0.07546667 -1.0393331 -0.36557275 -0.22179939 0.90396988 -1.8083373e-13
-0.19519354 0.07451614 -1.0365807 -0.36555791 -0.22202054 0.9039216 -1.8083373e-13
-0.18579312 0.07396552 -1.0328276 -0.36480147 -0.22189352 0.90425831 -1.8083373e-13
-0.17950001 0.070999995 -1.03125 -0.36485121 -0.22216897 0.90417063 -1.8083373e-13
0.052666664 0.074277788 -1.0357223 0.93200421 -0.040677689 0.36015758 -1.8083373e-13
-0.21149999 0.087750003 -1.03975 -0.35986322 -0.17105508 0.91719061 -1.8083373e-13
-0.20572414 0.08489655 -1.0382068 -0.36398149 -0.17109033 0.91555756 -1.8083373e-13
-0.19572726 0.084181815 -1.0343332 -0.36644337 -0.16652809 0.91541666 -1.8083373e-13
-0.18799999 0.08349999 -1.0315 -0.36521438 -0.15206814 0.91841918 -1.8083373e-13
0.052999999 0.084066667 -1.0354 0.93161273 -0.044104654 0.36076662 -1.8083373e-13
-0.214 0.095478266 -1.038913 -0.32299054 0.032475799 0.94584483 -1.8083373e-13
-0.20519358 0.094903231 -1.0355805 -0.29140434 0.06073425 0.95467001 -1.8083373e-13
-0.19637501 0.093916677 -1.0322083 -0.35170186 0.0039859544 0.93610352 -1.8083373e-13
-0.19 0.090000004 -1.031 -0.37541279 -0.076083332 0.92372972 -1.8083373e-13
0.0535 0.09466666 -1.0353333 0.92769098 0.03445917 0.37175524 -1.8083373e-13
-0.22257145 0.10628571 -1.0397142 -0.30945346 0.27143121 0.91135269 -1.8083373e-13
-0.2159 0.1049 -1.0373666 -0.34152538 0.29325917 0.89294988 -1.8083373e-13
-0.20566671 0.10454545 -1.0333334 -0.28595814 0.23603709 0.92871654 -1.8083373e-13
-0.199 0.10300001 -1.0311667 -0.31751841 0.19155484 0.92870277 -1.8083373e-13
0.05413333 0.10520001 -1.0353333 0.87059683 0.21336748 0.44332319 -1.8083373e-13
-0.223 0.10999999 -1.039 -0.31318599 0.34566873 0.88454938 -1.8083373e-13
-0.219 0.11 -1.038 -0.26659048 0.39233509 0.88034248 -1.8083373e-13
-0.206 0.1112 -1.039 -0.21113645 0.67658424 0.70544672 -1.8083373e-13
-0.19583333 0.111 -1.0356666 -0.20600657 0.67363489 0.70977271 -1.8083373e-13
-0.18540001 0.111 -1.0323999 -0.31101075 0.6788252 0.66518313 -1.8083373e-13
-0.18000001 0.11 -1.031 -0.23165001 0.72874433 0.64441442 -1.8083373e-13
-0.164 0.113 -1.03925 -0.084897429 0.92527741 0.36966762 -1.8083373e-13
-0.15483333 0.113 -1.0363332 -0.10584912 0.92810261 0.35696158 -1.8083373e-13
-0.14479999 0.1122 -1.033 -0.092047095 0.92357635 0.37220165 -1.8083373e-13
-0.138 0.112 -1.031 -0.082463376 0.92866796 0.36162904 -1.8083373e-13
-0.123 0.115 -1.04 -0.036991924 0.97320485 0.22694488 -1.8083373e-13
-0.11499999 0.1148 -1.0372 -0.043098584 0.9732129 0.22583005 -1.8083373e-13
-0.10580001 0.114 -1.0342 -0.042359434 0.97323197 0.22588766 -1.8083373e-13
-0.097499996 0.114 -1.0315 -0.038051777 0.97368026 0.22471933 -1.8083373e-13
-0.081 0.117 -1.04 -0.040221743 0.97393155 0.22324759 -1.8083373e-13
-0.075599998 0.1164 -1.0383999 -0.036333147 0.97386676 0.22419502 -1.8083373e-13
-0.065599993 0.116 -1.0351999 -0.032351177 0.97452015 0.22195476 -1.8083373e-13
-0.056000002 0.116 -1.0318 -0.034105595 0.97414327 0.2233423 -1.8083373e-13
-0.034599997 0.11800001 -1.039 -0.041565388 0.9741829 0.22190078 -1.8083373e-13
-0.028999999 0.118 -1.0369999 -0.039359428 0.97403502 0.22294953 -1.8083373e-13
-0.016000001 0.11749998 -1.0326667 -0.042886902 0.9744876 0.22030568 -1.8083373e-13
0.024199998 0.119 -1.0336 -0.011690992 0.97148895 0.23679644 -1.8083373e-13
0.030999999 0.119 -1.031 0.12199565 0.95129967 0.28310066 -1.8083373e-13
0.054764703 0.11435293 -1.0352942 0.81960559 0.37508941 0.43307561 -1.8083373e-13
0.0063333339 0.12 -1.0396667 -0.036890421 0.97360343 0.22524537 -1.8083373e-13
0.0145 0.12 -1.03675 -0.039567109 0.97362304 0.22470558 -1.8083373e-13
0.048500001 0.122 -1.04 0.48894712 0.80716085 0.33079001 -1.8083373e-13
0.054000001 0.12159999 -1.0383999 0.6771239 0.63338822 0.37459663 -1.8083373e-13
-0.461 -0.046 -1.026 -0.033547532 0.97302395 0.22825204 -1.8083373e-13
-0.45579997 -0.046 -1.0248001 -0.036811184 0.97309154 0.2274594 -1.8083373e-13
-0.44550002 -0.045000002 -1.0265001 -0.037167825 0.97361135 0.22516544 -1.8083373e-13
-0.43540001 -0.044800002 -1.0249999 -0.038207933 0.97444665 0.22134548 -1.8083373e-13
-0.42633337 -0.044333335 -1.0246667 -0.041295551 0.97490507 0.21875733 -1.8083373e-13
-0.4152 -0.044 -1.0252001 -0.041901153 0.97497219 0.21834263 -1.8083373e-13
-0.40510002 -0.043199997 -1.0260999 -0.042151038 0.97500056 0.21816766 -1.8083373e-13
-0.39554548 -0.042909089 -1.0256364 -0.03986948 0.97429043 0.2217401 -1.8083373e-13
-0.38622224 -0.042888887 -1.0243334 -0.040180463 0.97408891 0.22256759 -1.8083373e-13
-0.37566665 -0.041999999 -1.0255001 -0.038800795 0.97317898 0.22675331 -1.8083373e-13
-0.36475003 -0.041625001 -1.0263749 -0.035549749 0.9736653 0.22519392 -1.8083373e-13
-0.35550001 -0.041500002 -1.0255834 -0.037598006 0.97381002 0.22423306 -1.8083373e-13
-0.34559998 -0.041500002 -1.0243 -0.033439759 0.97383952 0.2247629 -1.8083373e-13
-0.33533335 -0.041000005 -1.0256667 -0.035339423 0.97391301 0.22415294 -1.8083373e-13
-0.32540002 -0.041000001 -1.0244 -0.03721191 0.9741534 0.222801 -1.8083373e-13
-0.31999999 -0.041000001 -1.024 -0.041299116 0.97416002 0.2220511 -1.8083373e-13
-0.32200003 -0.039000001 -1.03 -0.040933657 0.97376621 0.22383896 -1.8083373e-13
-0.315 -0.039499998 -1.0259001 -0.041914083 0.97336847 0.22538221 -1.8083373e-13
-0.30508333 -0.039499998 -1.0244999 -0.044910338 0.97317505 0.22564015 -1.8083373e-13
-0.2956 -0.039000001 -1.0262001 -0.044392515 0.9729526 0.22669917 -1.8083373e-13
-0.28566664 -0.039000001 -1.0246667 -0.038824569 0.97289526 0.2279636 -1.8083373e-13
-0.27533332 -0.038000003 -1.0263335 -0.035730064 0.97315341 0.22736719 -1.8083373e-13
-0.2656 -0.038000003 -1.0249001 -0.035054021 0.97369516 0.2251419 -1.8083373e-13
-0.25674999 -0.037500001 -1.025125 -0.039646972 0.9737246 0.2242512 -1.8083373e-13
-0.24533336 -0.037 -1.0250001 -0.038245901 0.97425586 0.22217743 -1.8083373e-13
-0.23570001 -0.036499999 -1.0266999 -0.038206588 0.97457343 0.22078688 -1.8083373e-13
-0.22591667 -0.036499999 -1.0252501 -0.037717372 0.97494626 0.21921919 -1.8083373e-13
-0.21633333 -0.036333337 -1.0248889 -0.038375035 0.97455442 0.22084187 -1.8083373e-13
-0.20559999 -0.035799999 -1.0254 -0.043854643 0.97323537 0.22558732 -1.8083373e-13
-0.19530001 -0.034599997 -1.0264 -0.040683441 0.9731127 0.22670816 -1.8083373e-13
-0.18550001 -0.034500003 -1.0255001 -0.043951016 0.97126997 0.233887 -1.8083373e-13
-0.17611112 -0.034444444 -1.0245556 -0.050548088 0.96536618 0.25595522 -1.8083373e-13
-0.16599999 -0.034000006 -1.0256667 -0.11887584 0.92896497 0.35056052 -1.8083373e-13
-0.15455554 -0.033333339 -1.0262222 -0.12643546 0.90817511 0.39903885 -1.8083373e-13
-0.14527273 -0.033090916 -1.0255454 -0.10036015 0.84542561 0.52457917 -1.8083373e-13
-0.13572727 -0.032909095 -1.0247272 -0.13806015 0.81125742 0.56815565 -1.8083373e-13
-0.12550001 -0.032000002 -1.026 -0.1847726 0.65318137 0.7343114 -1.8083373e-13
-0.11444444 -0.031666666 -1.0261111 -0.33228901 0.43537647 0.83667874 -1.8083373e-13
-0.10633334 -0.031833336 -1.0238333 -0.32355195 0.58263618 0.74555302 -1.8083373e-13
-0.095999993 -0.032000002 -1.0215 -0.31658155 0.46932504 0.82432413 -1.8083373e-13
-0.11491666 -0.02504167 -1.0286249 -0.35020769 0.25909656 0.90012413 -1.8083373e-13
-0.10548387 -0.026258061 -1.0251291 -0.38059747 0.2016719 0.90248215 -1.8083373e-13
-0.097090915 -0.02681818 -1.0219091 -0.33880597 0.25156891 0.9066 -1.8083373e-13
0.044750001 -0.024 -1.0250001 0.69965953 0.54671884 0.45997283 -1.8083373e-13
0.05442857 -0.024857145 -1.0252858 0.29211164 0.89516181 0.33668393 -1.8083373e-13
0.064083338 -0.024500003 -1.0261667 0.16746004 0.93662781 0.30770993 -1.8083373e-13
0.074166663 -0.024500003 -1.0246667 -0.0073021096 0.9736563 0.22790389 -1.8083373e-13
0.08433333 -0.024000002 -1.0263333 -0.038392156 0.97367424 0.22468759 -1.8083373e-13
0.094500005 -0.024000002 -1.0246667 -0.043121453 0.97318363 0.22595155 -1.8083373e-13
0.10458333 -0.023000002 -1.0264167 -0.044823188 0.97287911 0.22692977 -1.8083373e-13
0.11466667 -0.023 -1.0249166 -0.040206738 0.97241366 0.22977172 -1.8083373e-13
0.12414286 -0.022285715 -1.0257143 -0.044235453 0.97259581 0.22825547 -1.8083373e-13
0.13500001 -0.022 -1.0250001 -0.039751012 0.97261232 0.22900888 -1.8083373e-13
0.14516667 -0.022 -1.0235 -0.04242846 0.97370052 0.22384614 -1.8083373e-13
0.15516666 -0.022 -1.0216666 -0.039463811 0.97409153 0.22268449 -1.8083373e-13
0.162 -0.022 -1.021 -0.036407519 0.97487921 0.21973875 -1.8083373e-13
-0.12346153 -0.014846152 -1.0294615 -0.36031044 -0.015699826 0.93270034 -1.8083373e-13
-0.11549999 -0.016166665 -1.0266668 -0.35240191 0.050656974 0.93447673 -1.8083373e-13
-0.10567857 -0.01628571 -1.02275 -0.37216449 0.037844222 0.92739487 -1.8083373e-13
-0.0995 -0.019000001 -1.02125 -0.36506218 0.031126194 0.93046266 -1.8083373e-13
0.044588238 -0.015882352 -1.0258822 0.83470213 0.33444387 0.43751523 -1.8083373e-13
0.1455 -0.02 -1.03 -0.040515926 0.97433382 0.22143164 -1.8083373e-13
0.15383333 -0.019999998 -1.0286666 -0.036228135 0.97533917 0.2177179 -1.8083373e-13
0.16383334 -0.019999998 -1.0271666 -0.035231672 0.97537851 0.21770521 -1.8083373e-13
0.17383333 -0.019999998 -1.0255001 -0.036020242 0.97483999 0.21997662 -1.8083373e-13
0.1848889 -0.019666664 -1.0258888 -0.03812572 0.97424859 0.22223029 -1.8083373e-13
0.19416666 -0.019499999 -1.0256667 -0.039609723 0.97407466 0.22273226 -1.8083373e-13
0.2036 -0.019399999 -1.0249 -0.036406334 0.9739626 0.22376649 -1.8083373e-13
0.2145 -0.018999999 -1.0256667 -0.037121698 0.97326726 0.22665581 -1.8083373e-13
0.22500001 -0.018714285 -1.025 -0.038887363 0.97336179 0.22595268 -1.8083373e-13
0.23408331 -0.018000001 -1.026 -0.037892945 0.97327673 0.22648728 -1.8083373e-13
0.244 -0.017833332 -1.025 -0.041098222 0.97287023 0.22767195 -1.8083373e-13
0.25516665 -0.017000003 -1.026 -0.040120244 0.9726398 0.22882795 -1.8083373e-13
0.26516667 -0.017000003 -1.0245 -0.042356007 0.97310072 0.22645299 -1.8083373e-13
0.27466667 -0.016000001 -1.0261667 -0.042472374 0.97349495 0.22473045 -1.8083373e-13
0.2845 -0.016000001 -1.02475 -0.040398255 0.97346795 0.225229 -1.8083373e-13
0.29416665 -0.015 -1.0265 -0.037836246 0.97384757 0.22402947 -1.8083373e-13
0.30400002 -0.015 -1.025 -0.036638509 0.97343236 0.22602428 -1.8083373e-13
0.31525001 -0.014583333 -1.0259166 -0.035160545 0.97343546 0.2262456 -1.8083373e-13
0.32516667 -0.0145 -1.025 -0.036717754 0.97367603 0.22495963 -1.8083373e-13
0.33428571 -0.014142856 -1.0258571 -0.039305072 0.97368008 0.22450458 -1.8083373e-13
0.34466669 -0.014 -1.0253333 -0.04078649 0.97393286 0.22313944 -1.8083373e-13
0.35522223 -0.013111111 -1.0256667 -0.039040644 0.97404706 0.22295335 -1.8083373e-13
0.36408332 -0.012499999 -1.0254999 -0.039053582 0.97392958 0.22346355 -1.8083373e-13
0.3731111 -0.012333334 -1.0252222 -0.040891226 0.97359538 0.22458845 -1.8083373e-13
0.38457146 -0.012000001 -1.0255715 -0.037529457 0.97360241 0.22514403 -1.8083373e-13
0.39499998 -0.012000001 -1.0238334 -0.039907616 0.97373343 0.22416611 -1.8083373e-13
0.40466666 -0.012000001 -1.0223333 -0.039231673 0.97425985 0.2219878 -1.8083373e-13
0.41249999 -0.012 -1.021 -0.038793154 0.97464943 0.22034854 -1.8083373e-13
-0.13149999 -0.0042500002 -1.03 -0.37103763 -0.16522282 0.91380113 -1.8083373e-13
-0.12522581 -0.0054838704 -1.0280323 -0.35111675 -0.16317327 0.9220041 -1.8083373e-13
-0.1155625 -0.006031251 -1.02425 -0.36379722 -0.15610966 0.91830349 -1.8083373e-13
-0.10821427 -0.0066428571 -1.0214286 -0.37527066 -0.14942989 0.91479105 -1.8083373e-13
0.044764709 -0.0060588233 -1.0251176 0.89246422 0.15569597 0.42339861 -1.8083373e-13
0.3985 -0.0099999998 -1.03 -0.037960317 0.97327673 0.22647592 -1.8083373e-13
0.40516666 -0.0099999988 -1.0293335 -0.038351446 0.97311741 0.22709411 -1.8083373e-13
0.41483331 -0.0099999988 -1.0274999 -0.041241992 0.97353834 0.22477153 -1.8083373e-13
0.42433333 -0.0099999988 -1.026 -0.041578323 0.97327721 0.2258378 -1.8083373e-13
0.43399999 -0.0099999988 -1.0245 -0.040871728 0.97380042 0.22370149 -1.8083373e-13
0.4443846 -0.0090769222 -1.025846 -0.041469652 0.97317129 0.22631402 -1.8083373e-13
0.4539091 -0.0089090904 -1.0250001 -0.040785104 0.973221 0.22622444 -1.8083373e-13
0.46428576 -0.0080000004 -1.0264286 -0.040804226 0.97333997 0.22570866 -1.8083373e-13
0.47466668 -0.0080000004 -1.0246667 -0.036877822 0.97306436 0.22756501 -1.8083373e-13
0.48490909 -0.0075454549 -1.0260907 -0.033950467 0.97308552 0.22792971 -1.8083373e-13
0.49461541 -0.0075384621 -1.0246923 -0.037387535 0.97308463 0.22739509 -1.8083373e-13
0.50416666 -0.0069999998 -1.0266666 -0.035806417 0.97351307 0.2258101 -1.8083373e-13
0.51457149 -0.0069999998 -1.0251429 -0.03870143 0.97303283 0.22739702 -1.8083373e-13
0.52627271 -0.0062727272 -1.0256363 -0.039038751 0.97353709 0.22517021 -1.8083373e-13
0.53518188 -0.0059090909 -1.0254546 -0.037936788 0.9734928 0.22554941 -1.8083373e-13
0.54387498 -0.0054999995 -1.0254999 -0.039508726 0.97381067 0.22390163 -1.8083373e-13
0.55433333 -0.0049999994 -1.0254999 -0.038531907 0.97416127 0.22254241 -1.8083373e-13
0.56544441 -0.0045555551 -1.0251111 -0.040725965 0.97398549 0.22292082 -1.8083373e-13
0.57475001 -0.0039999997 -1.0256668 -0.039772782 0.97401583 0.22296032 -1.8083373e-13
0.58399999 -0.0036000002 -1.0254999 -0.039844226 0.97372866 0.22419865 -1.8083373e-13
0.59420002 -0.003 -1.0258 -0.039663099 0.97372824 0.22423261 -1.8083373e-13
-0.13442858 0.0049047614 -1.0290476 -0.36450377 -0.22292399 0.90412492 -1.8083373e-13
-0.12541667 0.004166666 -1.0256944 -0.36536601 -0.22206597 0.903988 -1.8083373e-13
-0.116125 0.0036249997 -1.0220833 -0.36371964 -0.22280915 0.90446895 -1.8083373e-13
-0.11 0 -1.021 -0.3647432 -0.2227008 0.90408337 -1.8083373e-13
0.045500007 0.0041666664 -1.0256666 0.92578906 -0.024250789 0.37726182 -1.8083373e-13
-0.14236365 0.015545454 -1.0296363 -0.36518204 -0.22330588 0.90375692 -1.8083373e-13
-0.1353125 0.014718746 -1.027125 -0.36308372 -0.22335546 0.90458971 -1.8083373e-13
-0.12570967 0.014290319 -1.0232904 -0.36353394 -0.2233074 0.90442073 -1.8083373e-13
-0.11914287 0.012142858 -1.0212857 -0.36446363 -0.22346103 0.90400851 -1.8083373e-13
0.046000004 0.014933333 -1.0256 0.93084544 -0.043365009 0.36283088 -1.8083373e-13
-0.15099999 0.028000001 -1.03 -0.36489424 -0.22272304 0.90401703 -1.8083373e-13
-0.14518517 0.024925923 -1.0285186 -0.36448941 -0.2225195 0.90423042 -1.8083373e-13
-0.13538891 0.024499996 -1.0246946 -0.36520213 -0.22124934 0.90425444 -1.8083373e-13
-0.1270625 0.023312503 -1.0216875 -0.36408243 -0.22247617 0.904405 -1.8083373e-13
0.046333332 0.024500005 -1.0253333 0.93101448 -0.046732582 0.3619782 -1.8083373e-13
-0.15300001 0.03557143 -1.0290953 -0.36475894 -0.22227323 0.90418226 -1.8083373e-13
-0.14500001 0.034666669 -1.0260334 -0.36416906 -0.22223915 0.90442836 -1.8083373e-13
-0.13607143 0.034249999 -1.0225714 -0.36364746 -0.22211316 0.90466917 -1.8083373e-13
-0.12966667 0.030666666 -1.021 -0.36499071 -0.22137836 0.9043082 -1.8083373e-13
0.046846155 0.034307692 -1.0257692 0.93177116 -0.048333947 0.35981429 -1.8083373e-13
-0.16214286 0.047571428 -1.0297142 -0.36444387 -0.22177531 0.90443146 -1.8083373e-13
-0.15458333 0.04483334 -1.0274166 -0.36412799 -0.22176653 0.90456092 -1.8083373e-13
-0.14448275 0.044620689 -1.0234828 -0.36445349 -0.2218024 0.90442097 -1.8083373e-13
-0.13799998 0.042888887 -1.0213332 -0.36398557 -0.22236907 0.90447026 -1.8083373e-13
0.047000002 0.044833332 -1.0248333 0.93122292 -0.050545927 0.360928 -1.8083373e-13
0.050000001 0.048999999 -1.03 0.93090737 -0.048909392 0.36196592 -1.8083373e-13
-0.16460001 0.055599995 -1.0288 -0.36368293 -0.22273672 0.90450162 -1.8083373e-13
-0.15523531 0.055029418 -1.0251765 -0.36491135 -0.22138128 0.90433955 -1.8083373e-13
-0.14647616 0.054142855 -1.0219523 -0.36496204 -0.2226277 0.9040131 -1.8083373e-13
0.047000002 0.054833338 -1.0236666 0.93136871 -0.049035285 0.36076012 -1.8083373e-13
0.050000001 0.055166662 -1.0296668 0.93128288 -0.048377845 0.36107042 -1.8083373e-13
-0.17233332 0.065583341 -1.0294167 -0.36401129 -0.22255106 0.90441519 -1.8083373e-13
-0.1654 0.065166667 -1.0268333 -0.36374214 -0.22250494 0.9045347 -1.8083373e-13
-0.15549999 0.064735293 -1.0229412 -0.36525583 -0.22325855 0.90373892 -1.8083373e-13
-0.14833333 0.061333332 -1.021 -0.36527476 -0.22304906 0.90378284 -1.8083373e-13
0.047333337 0.064222224 -1.0233333 0.93076545 -0.043569311 0.36301157 -1.8083373e-13
0.050000001 0.064400002 -1.0286 0.93145126 -0.046915837 0.36082876 -1.8083373e-13
-0.182 0.078000002 -1.03 -0.36421549 -0.22175029 0.90452969 -1.8083373e-13
-0.17525001 0.074107125 -1.0285357 -0.36406514 -0.22158261 0.90463132 -1.8083373e-13
-0.16547059 0.075352944 -1.0243529 -0.36493212 -0.2220643 0.90416372 -1.8083373e-13
-0.15753333 0.073866658 -1.0216 -0.36500806 -0.22282088 0.90394688 -1.8083373e-13
0.048000004 0.075166665 -1.0233332 0.9296748 -0.040507939 0.3661474 -1.8083373e-13
0.050000001 0.073833339 -1.0274999 0.93190056 -0.041018505 0.36038712 -1.8083373e-13
-0.18342106 0.08494737 -1.029158 -0.37011704 -0.14425701 0.91771632 -1.8083373e-13
-0.17528124 0.084125005 -1.0261251 -0.36735481 -0.12804058 0.92122525 -1.8083373e-13
-0.16614285 0.0845 -1.0223929 -0.34791678 -0.12788966 0.92876166 -1.8083373e-13
0.048000004 0.085166663 -1.0221666 0.92920601 -0.041341089 0.3672424 -1.8083373e-13
0.050333336 0.08477778 -1.0275555 0.93141961 -0.042711057 0.36143228 -1.8083373e-13
-0.19216669 0.096500002 -1.0298333 -0.38061219 0.10652334 0.91857886 -1.8083373e-13
-0.18558066 0.093967758 -1.0278387 -0.35300085 0.082073815 0.93201625 -1.8083373e-13
-0.17545715 0.094628587 -1.0236 -0.34028724 0.081846774 0.93675268 -1.8083373e-13
-0.16814287 0.092714287 -1.0212857 -0.41808471 0.06172144 0.90630877 -1.8083373e-13
0.048 0.094400004 -1.021 0.92876041 0.0699597 0.36401886 -1.8083373e-13
0.050500002 0.094000004 -1.0271667 0.92178011 0.057313148 0.38345346 -1.8083373e-13
-0.19455558 0.10492594 -1.0287408 -0.280458 0.35732925 0.89087546 -1.8083373e-13
-0.18533333 0.10399999 -1.0253335 -0.30561793 0.35735756 0.88254929 -1.8083373e-13
-0.17713636 0.10349999 -1.0221364 -0.36941341 0.35894665 0.8571412 -1.8083373e-13
-0.15149999 0.109 -1.0215 -0.22193651 0.78149277 0.58310658 -1.8083373e-13
0.050500002 0.104 -1.0258332 0.88824356 0.21487224 0.40602133 -1.8083373e-13
-0.1744 0.11 -1.0288 -0.24630129 0.69943166 0.67091811 -1.8083373e-13
-0.16474999 0.11 -1.02575 -0.23306979 0.75897712 0.60797381 -1.8083373e-13
-0.15700001 0.11 -1.023 -0.16669856 0.78414327 0.59777158 -1.8083373e-13
-0.134 0.11200001 -1.0293334 -0.082832061 0.93824232 0.33591691 -1.8083373e-13
-0.12566666 0.112 -1.0266668 -0.083557114 0.94479978 0.31681466 -1.8083373e-13
-0.1156 0.1112 -1.0233999 -0.084522061 0.93803519 0.33607426 -1.8083373e-13
-0.1095 0.111 -1.0215 -0.090442136 0.94082934 0.32658887 -1.8083373e-13
-0.090999998 0.114 -1.029 -0.041394465 0.97348577 0.22497076 -1.8083373e-13
-0.08516667 0.11350001 -1.0273333 -0.045268808 0.97343183 0.22445741 -1.8083373e-13
-0.073666669 0.113 -1.0233333 -0.033986766 0.97333992 0.22683571 -1.8083373e-13
-0.068000004 0.113 -1.0216666 -0.032850165 0.97405457 0.22391643 -1.8083373e-13
-0.050999999 0.115 -1.03 -0.039695576 0.97405511 0.22280248 -1.8083373e-13
-0.045399997 0.11499999 -1.028 -0.041240077 0.97407562 0.22243194 -1.8083373e-13
-0.035666663 0.115 -1.0248333 -0.037090361 0.97469199 0.22045378 -1.8083373e-13
-0.027333334 0.11466667 -1.022 -0.04337661 0.97459781 0.21972167 -1.8083373e-13
-0.0055 0.11699999 -1.0288333 -0.0401324 0.97377717 0.22393601 -1.8083373e-13
0.004666667 0.11699999 -1.0253334 -0.038257673 0.97371274 0.22454368 -1.8083373e-13
0.01475 0.116 -1.022 -0.041074738 0.97312433 0.22658741 -1.8083373e-13
0.036000002 0.119 -1.0292 0.28457138 0.88236922 0.37475809 -1.8083373e-13
0.044599999 0.1184 -1.0262001 0.57722014 0.70884603 0.40540636 -1.8083373e-13
0.050692312 0.11438461 -1.0252306 0.79106981 0.4764947 0.38361633 -1.8083373e-13
-0.45225 -0.047499999 -1.0152501 -0.041676529 0.97378588 0.22361608 -1.8083373e-13
-0.44554541 -0.047454547 -1.0145456 -0.042678095 0.9740181 0.22241221 -1.8083373e-13
-0.43516669 -0.046999995 -1.0156666 -0.042224769 0.97423285 0.22155695 -1.8083373e-13
-0.424375 -0.046250001 -1.0165 -0.041022934 0.97464299 0.21997304 -1.8083373e-13
-0.41554546 -0.046090912 -1.0158181 -0.042309117 0.97453791 0.22019486 -1.8083373e-13
-0.40554541 -0.045909092 -1.0147274 -0.040118337 0.97423959 0.22191834 -1.8083373e-13
-0.39649999 -0.045333337 -1.0153333 -0.038862664 0.97364342 0.22474025 -1.8083373e-13
-0.38499999 -0.044750005 -1.0159999 -0.036610682 0.97343367 0.22602341 -1.8083373e-13
-0.37536365 -0.044545457 -1.0160909 -0.03777042 0.97344702 0.22577471 -1.8083373e-13
-0.36554545 -0.044454549 -1.015 -0.035975926 0.97434443 0.22216782 -1.8083373e-13
-0.35671428 -0.044285715 -1.0148571 -0.034729198 0.97469318 0.22083242 -1.8083373e-13
-0.34514284 -0.043571431 -1.0157143 -0.034204714 0.97382528 0.22470929 -1.8083373e-13
-0.33527276 -0.04254546 -1.0162728 -0.037628096 0.9737556 0.22446415 -1.8083373e-13
-0.32554546 -0.042454544 -1.0153636 -0.041974701 0.97434145 0.22112623 -1.8083373e-13
-0.316625 -0.042375002 -1.0145 -0.042970784 0.97423732 0.22139369 -1.8083373e-13
-0.30500001 -0.041999999 -1.0151428 -0.041208979 0.97390372 0.22318889 -1.8083373e-13
-0.29440001 -0.041999999 -1.0136 -0.040615022 0.9736191 0.22453587 -1.8083373e-13
-0.28560001 -0.041999999 -1.0122 -0.03890105 0.97329634 0.22623208 -1.8083373e-13
-0.27775002 -0.041999999 -1.011 -0.040956579 0.97365463 0.22431973 -1.8083373e-13
-0.29499999 -0.039999999 -1.0197999 -0.041728716 0.97326934 0.22584389 -1.8083373e-13
-0.28533334 -0.039999995 -1.0185001 -0.038938157 0.9727667 0.2284923 -1.8083373e-13
-0.27450001 -0.039999995 -1.0166665 -0.039120205 0.97351617 0.22524615 -1.8083373e-13
-0.26480001 -0.039999999 -1.0153999 -0.040239763 0.9737969 0.22383113 -1.8083373e-13
-0.25470001 -0.0396 -1.0164 -0.038554382 0.97432166 0.22183533 -1.8083373e-13
-0.24527274 -0.039454546 -1.0158181 -0.037463527 0.97457558 0.22090469 -1.8083373e-13
-0.2361 -0.039500002 -1.0142001 -0.037862577 0.97416848 0.22262545 -1.8083373e-13
-0.22566666 -0.039000001 -1.0156666 -0.037330486 0.97455317 0.22102636 -1.8083373e-13
-0.21444443 -0.037666664 -1.0162222 -0.037553724 0.97398782 0.22346669 -1.8083373e-13
-0.20559999 -0.037499998 -1.0159 -0.04128461 0.97353971 0.22475755 -1.8083373e-13
-0.19599998 -0.037499994 -1.0144167 -0.043176878 0.97333413 0.22529192 -1.8083373e-13
-0.18549998 -0.037 -1.0160002 -0.037168816 0.97325897 0.22668384 -1.8083373e-13
-0.174125 -0.036499999 -1.015875 -0.036038239 0.97336948 0.22639138 -1.8083373e-13
-0.1655 -0.035999998 -1.0162001 -0.036293492 0.97358382 0.22542691 -1.8083373e-13
-0.155 -0.036000002 -1.0145714 -0.037361816 0.97390127 0.22387582 -1.8083373e-13
-0.1446 -0.035 -1.0162001 -0.08693438 0.93587953 0.34142631 -1.8083373e-13
-0.13500001 -0.035 -1.0146667 -0.10645037 0.92932433 0.35358828 -1.8083373e-13
-0.12581818 -0.034454547 -1.0168183 -0.10556976 0.89382243 0.43581715 -1.8083373e-13
-0.11575001 -0.034499999 -1.0149167 -0.21492432 0.81495202 0.53820133 -1.8083373e-13
-0.10625 -0.034250002 -1.015125 -0.2519131 0.7708497 0.58509022 -1.8083373e-13
-0.094833337 -0.032999996 -1.015 -0.28773773 0.66355878 0.69057715 -1.8083373e-13
-0.085363634 -0.032454547 -1.0162728 -0.30372581 0.53533232 0.78814328 -1.8083373e-13
-0.075818181 -0.032545451 -1.013091 -0.26657325 0.58973867 0.76232988 -1.8083373e-13
-0.068333335 -0.032500003 -1.0113333 -0.32608822 0.50048786 0.80198395 -1.8083373e-13
-0.092916667 -0.024416668 -1.0195 -0.36676899 0.1690551 0.91482294 -1.8083373e-13
-0.085314296 -0.02608571 -1.016943 -0.32605591 0.22385563 0.918464 -1.8083373e-13
-0.075600006 -0.025833333 -1.013 -0.33719087 0.24230687 0.90971959 -1.8083373e-13
-0.069200002 -0.028599998 -1.0112001 -0.34506384 0.31478956 0.88421637 -1.8083373e-13
0.037999999 -0.025 -1.0114 0.77262431 0.45080069 0.44702396 -1.8083373e-13
0.042833332 -0.026166668 -1.0161111 0.57399654 0.69356406 0.43531239 -1.8083373e-13
0.054083336 -0.027499998 -1.0145 0.27152541 0.8980968 0.3459712 -1.8083373e-13
0.064166673 -0.027000001 -1.0163332 0.11066006 0.95334202 0.28087977 -1.8083373e-13
0.074166663 -0.027000001 -1.0146667 -0.035247587 0.97457987 0.22125019 -1.8083373e-13
0.084166676 -0.026000002 -1.0164165 -0.033510204 0.97508353 0.2192921 -1.8083373e-13
0.094166666 -0.026000001 -1.0147499 -0.038105864 0.97351629 0.22541945 -1.8083373e-13
0.10385714 -0.025285715 -1.0157143 -0.040893257 0.97319806 0.22630356 -1.8083373e-13
0.11416667 -0.025 -1.015 -0.043062638 0.97305346 0.2265227 -1.8083373e-13
0.12472727 -0.024545455 -1.0163636 -0.045965381 0.97230637 0.22914504 -1.8083373e-13
0.13433333 -0.024416668 -1.015 -0.043417577 0.97333401 0.22524591 -1.8083373e-13
0.14362501 -0.023500001 -1.01525 -0.043095626 0.97403979 0.22223717 -1.8083373e-13
0.15449999 -0.023 -1.0153333 -0.04031549 0.97459096 0.22033404 -1.8083373e-13
0.16529998 -0.022600001 -1.0160999 -0.033928517 0.97491944 0.2199567 -1.8083373e-13
0.1745 -0.022500001 -1.01525 -0.036749236 0.97450101 0.22135332 -1.8083373e-13
0.18377778 -0.022333333 -1.015 -0.037126482 0.97423357 0.22246468 -1.8083373e-13
0.19483334 -0.022 -1.0154999 -0.035881836 0.97406322 0.22341326 -1.8083373e-13
0.2045 -0.022 -1.0138334 -0.037167765 0.97389764 0.22392407 -1.8083373e-13
0.21433334 -0.022 -1.0123333 -0.035316721 0.97330642 0.2267762 -1.8083373e-13
0.2225 -0.022 -1.011 -0.036812022 0.97277719 0.22879967 -1.8083373e-13
-0.102 -0.0125 -1.02 -0.40265444 -0.063426882 0.91315198 -1.8083373e-13
-0.094968759 -0.015499997 -1.0182813 -0.34363291 -0.036348931 0.93840033 -1.8083373e-13
-0.08563333 -0.015833337 -1.0145667 -0.35137799 0.040892232 0.93534017 -1.8083373e-13
-0.078000009 -0.016736841 -1.0117893 -0.37447593 0.019845489 0.92702425 -1.8083373e-13
0.037999999 -0.018999999 -1.011 0.83504575 0.36288732 0.41353539 -1.8083373e-13
0.0405 -0.015833331 -1.0161667 0.83964348 0.33009616 0.43131816 -1.8083373e-13
0.207 -0.02 -1.02 -0.036905508 0.97391915 0.2238739 -1.8083373e-13
0.21442857 -0.019999998 -1.0190001 -0.039181631 0.97362715 0.22475553 -1.8083373e-13
0.22516668 -0.019999998 -1.0173334 -0.039219029 0.97316933 0.22672322 -1.8083373e-13
0.23500001 -0.019999998 -1.0156666 -0.038172539 0.97225159 0.23080228 -1.8083373e-13
0.2452857 -0.01985714 -1.015 -0.04059599 0.97177351 0.23239668 -1.8083373e-13
0.25425002 -0.01908333 -1.0160002 -0.039949361 0.97213674 0.23098519 -1.8083373e-13
0.26363638 -0.018909089 -1.0147272 -0.042189166 0.97326064 0.22579598 -1.8083373e-13
0.27442858 -0.017999997 -1.0161428 -0.042311318 0.97380209 0.22342601 -1.8083373e-13
0.285 -0.017999999 -1.0145 -0.039998017 0.97436994 0.22136699 -1.8083373e-13
0.29449999 -0.017500002 -1.0161667 -0.036589991 0.97515315 0.21848905 -1.8083373e-13
0.3041667 -0.017500002 -1.0146667 -0.034605268 0.97556388 0.21697369 -1.8083373e-13
0.31383333 -0.017000003 -1.0165 -0.034826227 0.9748255 0.22023275 -1.8083373e-13
0.32442856 -0.017000003 -1.0148572 -0.037135437 0.97497261 0.21920192 -1.8083373e-13
