# .PCD v0.7 - Point Cloud Data file format
VERSION 0.7
FIELDS x y z rgb
SIZE 4 4 4 4
TYPE F F F U
COUNT 1 1 1 1
WIDTH 1139
HEIGHT 1
VIEWPOINT 0 0 0 1 0 0 0
POINTS 1139
DATA ascii
0.36551389 0.64963806 1.6880001 4288057493
0.37439275 0.64963806 1.6880001 4287926420
0.38586134 0.64778835 1.688 4287728784
0.39315346 0.64708221 1.6868572 4287530890
0.40623397 0.64747351 1.6872727 4287728525
0.41582426 0.64611077 1.6851764 4287794062
0.42518333 0.64495313 1.6857144 4287663246
0.43312141 0.64198643 1.6845714 4287531659
-0.69329256 0.65777701 1.6880001 4285122303
-0.68507814 0.65847313 1.6860001 4284991231
-0.67627472 0.65851694 1.6880001 4284793599
-0.65259767 0.65703714 1.6880001 4284004863
-0.644795 0.65582633 1.6879998 4284070655
-0.63452005 0.65519392 1.6847999 4284136191
-0.62472028 0.65423113 1.6833334 4284267007
-0.61660528 0.656434 1.6826668 4284004351
0.35700497 0.65592718 1.688 4287992469
0.36611381 0.65618742 1.6855384 4288057746
0.37538755 0.65548062 1.6843078 4287926414
0.38450873 0.654535 1.6824619 4287531403
0.39491379 0.65596753 1.684 4287596940
0.40376633 0.65326214 1.684 4287794319
0.41532961 0.65245038 1.6800001 4287663243
-0.70502532 0.66485894 1.688 4284531455
-0.69591576 0.66416717 1.6879998 4284728319
-0.68500274 0.66396278 1.6840001 4284794111
-0.67815661 0.66436839 1.6853334 4284662527
-0.65407747 0.66443616 1.6880001 4283808767
-0.64474148 0.66378713 1.6836364 4284070655
-0.63543999 0.66359925 1.680889 4284201983
-0.61414444 0.66504538 1.6830001 4284070143
0.34479651 0.66528177 1.688 4288189848
0.35466051 0.66414297 1.6842668 4288058008
0.36504671 0.66402078 1.6806157 4287860882
0.37519583 0.66386461 1.6800002 4287597450
0.38145518 0.66276002 1.6800001 4287531141
0.39323759 0.66128719 1.6800001 4287793805
-0.7958436 0.67686665 1.6880001 4286431485
-0.7517451 0.67775452 1.6880001 4283873023
-0.74426287 0.6779269 1.6868571 4283873535
-0.73534721 0.67752934 1.6862223 4284333823
-0.72504449 0.67809033 1.687 4284596735
-0.71417278 0.67598081 1.6872727 4284596735
-0.70601887 0.67472768 1.6859999 4284728319
-0.69500285 0.67389363 1.6816844 4284596735
-0.68514723 0.67335844 1.6807275 4284728319
-0.6742816 0.67373103 1.6835001 4284662527
-0.66491759 0.67512518 1.6858182 4284334079
-0.65606713 0.67289352 1.684 4283874559
-0.64957142 0.67023969 1.684 4284005887
-0.61118746 0.67171955 1.684 4284004351
-0.6052767 0.67700917 1.6845715 4283807231
0.28264433 0.67923433 1.6880001 4287859854
0.30928099 0.67775452 1.6880001 4288387491
0.31520024 0.67775458 1.6880001 4288321695
0.32623544 0.67625368 1.6873845 4288320922
0.33544475 0.67531586 1.6845715 4288189848
0.34474587 0.67404932 1.6816844 4288058262
0.35429254 0.67335844 1.6807275 4287992213
0.36181787 0.67110586 1.6799999 4287926414
0.37556401 0.67012399 1.6800001 4287465355
-0.77986163 0.68515354 1.6880001 4283544575
-0.76447153 0.68692935 1.6880001 4283675647
-0.75498843 0.68504983 1.6853333 4283610367
-0.74516827 0.68464756 1.6806157 4283676415
-0.73527712 0.68458617 1.6808001 4283807999
-0.72474027 0.68418735 1.6820002 4284334079
-0.71498823 0.68491095 1.6816002 4284531199
-0.70617175 0.68422943 1.6808891 4284925439
-0.69722354 0.68308467 1.6800001 4284662271
-0.60228401 0.68219393 1.6880001 4284135167
-0.59841269 0.68397063 1.6826668 4283544575
0.27968472 0.68515354 1.6880001 4287465601
0.28560394 0.68515354 1.688 4288057750
0.29448283 0.68515354 1.688 4288519587
0.30470702 0.68542266 1.6879998 4288387490
0.31605414 0.68556911 1.686 4288256158
0.32506478 0.6847614 1.6836923 4288190108
0.3335892 0.68264282 1.6800001 4288189850
-0.82129639 0.69995171 1.6880001 4284650419
-0.81480694 0.69747388 1.6856 4284521680
-0.80590743 0.69837898 1.686 4283672058
-0.79285735 0.69565248 1.6799999 4283082751
-0.78449243 0.6976313 1.6834286 4283149055
-0.77505219 0.69708496 1.6859999 4283412223
-0.76472569 0.6953311 1.684 4283675135
-0.75584096 0.69427788 1.6800001 4283676159
-0.74965519 0.69074321 1.6800001 4283872767
-0.73492718 0.69368881 1.6800001 4283939327
-0.72903597 0.69810724 1.6800001 4283873791
-0.71430796 0.69074321 1.6799999 4285056767
-0.59342968 0.69693017 1.6866668 4284068095
-0.5876472 0.69958001 1.6800001 4284985087
0.2352903 0.69995171 1.6880001 4287925899
0.24268939 0.69995171 1.6880001 4287991691
0.25606537 0.69855374 1.6862223 4287925903
0.27672508 0.69645393 1.6879998 4288189843
0.28562102 0.69609344 1.6868571 4288388765
0.2946012 0.69614506 1.684706 4288387998
0.30416417 0.69398093 1.6828238 4288387997
0.3137095 0.69212562 1.6817778 4288256155
0.32475239 0.69147962 1.6800001 4288255899
-0.84244156 0.70547122 1.6800001 4285368729
-0.83254302 0.70646292 1.6880001 4285500577
-0.82303739 0.70456296 1.6839999 4285042602
-0.81249458 0.70350748 1.6799999 4284521674
-0.80555284 0.704826 1.6847999 4283671798
-0.79508877 0.70461679 1.6843636 4283083007
-0.78500241 0.70326203 1.6800001 4283477247
-0.77454275 0.70319188 1.6816002 4283412223
-0.7643832 0.70252562 1.6800001 4283806719
-0.58464313 0.70560914 1.6826668 4282946030
0.22560354 0.70549506 1.6864001 4287729555
0.23491859 0.70475113 1.6853335 4287728776
0.24365489 0.70437944 1.6844444 4287860106
0.25332791 0.70478594 1.684 4287860372
0.26451665 0.70624095 1.688 4288058265
0.27524528 0.70587093 1.6879998 4288454307
0.28421235 0.70432109 1.6822859 4288322461
0.29455996 0.70399839 1.6800002 4288387746
0.30339679 0.70399845 1.6800001 4288256157
0.27803659 0.17990603 1.6960001 4285800507
0.28646192 0.1789148 1.6960001 4285602864
0.2958785 0.17778198 1.6960001 4285735211
0.30281702 0.1779236 1.6960001 4286855759
0.2453264 0.18882698 1.6960001 4281148984
0.27591255 0.18627813 1.6960001 4285998911
0.28457862 0.18347439 1.6960001 4285669164
0.29647321 0.18406913 1.6960001 4285604923
0.30331266 0.18882698 1.6960001 4287980155
0.23700015 0.19655848 1.6960001 4281280071
0.24592113 0.19358483 1.6960001 4281214276
0.25424734 0.19328748 1.6960001 4282655035
0.26515076 0.19180064 1.6960001 4285407812
0.27208927 0.19180064 1.6960001 4286459469
0.30702969 0.19403088 1.6960001 4286273637
0.19477428 0.20964257 1.6960001 4281870680
0.20419087 0.20766012 1.6960001 4281937758
0.2237674 0.20592548 1.6960001 4281674065
0.23343177 0.20191106 1.6960001 4281411402
0.30777311 0.20072159 1.6960001 4286209382
0.31149018 0.20518208 1.6960001 4285875544
0.1784192 0.21856351 1.6960001 4283780200
0.18659675 0.21484645 1.6960001 4282922590
0.19477428 0.21261621 1.6960001 4282990431
0.31372043 0.21410304 1.6960001 4284495691
0.12340662 0.22599764 1.6960001 4289342050
0.16801141 0.22599766 1.6960001 4282987617
0.17336401 0.22272663 1.6960001 4283252321
0.31074676 0.22748448 1.6960001 4287393659
0.096148126 0.23838788 1.6960001 4289729098
0.10583503 0.23532413 1.6960002 4289991238
0.11448565 0.23491859 1.6960001 4290320721
0.12439784 0.23376219 1.6960001 4290919534
0.13596204 0.23607506 1.6960001 4290857351
0.14422219 0.2353241 1.6960002 4290798242
0.15388657 0.23367959 1.6960001 4289808510
0.16325358 0.23283705 1.6960001 4288624231
0.31074676 0.23491861 1.6960001 4287787645
0.08623594 0.2453264 1.6960001 4289795147
0.095021732 0.24505606 1.6960002 4289794893
0.10259104 0.24235274 1.6960001 4289729354
0.30777311 0.24830005 1.6960001 4286210666
0.31074676 0.24681322 1.6960001 4286800232
0.08512082 0.25387564 1.6960001 4289600336
0.094751403 0.25451767 1.6960002 4289729870
0.10259104 0.25722101 1.6960001 4289796683
0.30777311 0.25424737 1.6960001 4286011760
0.086731553 0.26118588 1.6960001 4289601107
0.096103072 0.26316833 1.6960002 4289665361
0.10490388 0.26581156 1.6960001 4289600335
0.30479947 0.26911563 1.6960001 4286077531
0.1063081 0.27283269 1.6960001 4289667674
0.11349443 0.27605414 1.6960001 4289668438
0.12935393 0.27803659 1.6960001 4289605725
0.30479947 0.27506292 1.6960001 4286209135
0.11533526 0.28355908 1.6960001 4289537620
0.12386409 0.28512761 1.696 4289538389
0.13455781 0.2832405 1.6960001 4289408349
0.14273536 0.28695753 1.6960001 4289474144
0.30331266 0.28547072 1.6960001 4285812578
0.12340661 0.29290485 1.6960001 4289472594
0.14719585 0.29439169 1.6960001 4289342560
0.15165633 0.29885215 1.6960001 4289472092
0.30256924 0.29513508 1.6960001 4285485143
0.1561168 0.30182582 1.6960001 4289407071
0.16503775 0.30579066 1.6960001 4289607525
0.17098507 0.30777311 1.6960001 4289673065
0.30182582 0.30479947 1.6960001 4286079589
0.17608276 0.31457004 1.6960001 4289476450
0.18287967 0.31966773 1.6960001 4289476454
0.30182582 0.31520724 1.6960001 4286869368
0.18783577 0.32561505 1.6960001 4289345382
0.19279186 0.3275975 1.6960001 4289280617
0.29885215 0.32264137 1.6960001 4287461249
0.19774795 0.33156234 1.6960001 4289084778
0.20454489 0.33453599 1.6960001 4289083495
0.2958785 0.33453599 1.6960001 4287460474
0.20964256 0.34048331 1.6960001 4289148517
0.21618459 0.34405169 1.6960001 4288887913
0.223024 0.34940428 1.6960001 4288430441
0.29662192 0.34494376 1.6960001 4287852918
0.22599766 0.35237792 1.6960001 4288497001
0.23555581 0.3553516 1.6960001 4288035942
0.24235274 0.35832521 1.6960001 4287511137
0.29885215 0.35386473 1.6960001 4287851887
0.24592113 0.36367783 1.6960001 4286987622
0.25127369 0.36575937 1.6960001 4286204009
0.29885215 0.36427251 1.6960001 4286135604
0.24830005 0.37021983 1.6960001 4284629099
0.2548421 0.37378824 1.6960001 4284759647
0.26448995 0.37484553 1.6960001 4284689219
0.27506292 0.37765396 1.6960001 4285671489
0.28398389 0.37914079 1.6960001 4286925407
0.29538292 0.37418473 1.6960001 4285542456
0.28547072 0.38211444 1.6960001 4286925921
0.91737205 0.46835041 1.6960001 4285492849
0.90845108 0.47727135 1.6960001 4285428087
0.91397363 0.4734481 1.6960001 4285558899
0.86715031 0.48619235 1.6960001 4285492337
0.87514621 0.48500291 1.6960001 4285558132
0.88525659 0.48738179 1.6960001 4285492849
0.89417756 0.48619232 1.6960001 4285558645
0.90547746 0.48123622 1.6960001 4285690231
0.78801811 0.49808693 1.6960001 4286018934
0.7954523 0.49610448 1.6960001 4286018934
0.80139959 0.49808693 1.6960001 4285887091
0.82667565 0.49808693 1.6960001 4278191130
0.83410978 0.49808693 1.6960001 4279506456
0.84451753 0.49808693 1.6960001 4285622626
0.85611475 0.49630275 1.6960001 4285624434
0.86554545 0.49383885 1.6960001 4285558385
0.87871456 0.49213964 1.6960001 4285624178
0.76868939 0.50998157 1.6960001 4286215545
0.77506149 0.5078575 1.6960001 4286084471
0.78440732 0.50552106 1.696 4286018934
0.79842591 0.50601673 1.6960001 4286017908
0.8041029 0.50592655 1.6960002 4285886065
0.81131172 0.50651228 1.6960001 4285755244
0.82578343 0.50611579 1.6960001 4280625986
0.83283538 0.50403422 1.6960001 4278323223
0.84501314 0.50106061 1.6960001 4285031254
0.85492533 0.50106061 1.6960001 4285821298
0.72557139 0.51890248 1.6960001 4286347127
0.73449236 0.51890248 1.6960001 4286215795
0.74490017 0.51890248 1.6960001 4286018926
0.75620002 0.51830781 1.6960001 4286216055
0.76670694 0.51692009 1.6960001 4286216057
0.77344716 0.51473939 1.6960001 4286215287
0.78355765 0.51295519 1.6960001 4286084727
0.79842591 0.51592886 1.6960001 4285821300
0.80288637 0.51295519 1.6960001 4285821299
0.81775463 0.51295519 1.6960001 4285362546
0.82221514 0.51295519 1.6960001 4286019197
0.66163784 0.52484983 1.6960001 4286345848
0.70772946 0.52782345 1.6960001 4286479485
0.71516365 0.52435416 1.6960001 4286413437
0.72408456 0.52187616 1.6960001 4286347129
0.73385519 0.52315056 1.6960001 4286216052
0.76571572 0.52187616 1.6960001 4286281849
0.77166301 0.52187616 1.6960001 4286281849
0.62595397 0.53823131 1.6960001 4286478196
0.63445014 0.53759402 1.6960001 4286478457
0.64460695 0.53674448 1.6960002 4286544250
0.6560623 0.53711617 1.6960001 4286741631
0.66418666 0.53589481 1.6960001 4286676867
0.67461377 0.53647411 1.6960002 4286676867
0.68457747 0.53716922 1.6960001 4286676611
0.69434804 0.53971809 1.6960001 4286807682
0.70624256 0.53525764 1.6960001 4286478972
0.71218997 0.5337708 1.6960001 4286478714
0.61554623 0.54863906 1.6960001 4286871926
0.62446713 0.54566532 1.6960001 4286741113
0.63368553 0.54447591 1.6960001 4286610303
0.64379597 0.54269171 1.6960001 4286478714
0.65271688 0.54269171 1.6960001 4286742148
0.67947978 0.54269171 1.6960001 4286611071
0.68840075 0.54269171 1.6960001 4286610819
0.6943481 0.54269171 1.6960001 4286610561
0.703269 0.54269171 1.6960001 4286544253
0.59547406 0.55681658 1.6960001 4286740083
0.60612965 0.55557758 1.6960001 4286543991
0.61405939 0.55458635 1.6960001 4286609529
0.62149358 0.55309951 1.6960001 4286609534
0.56648093 0.56945461 1.6960001 4286741367
0.5754019 0.56796783 1.6960001 4286610038
0.58432281 0.56826508 1.6960001 4286544244
0.59473068 0.5649941 1.6959999 4286740084
0.60484105 0.56410199 1.6960001 4286478452
0.51667225 0.5754019 1.6960001 4287136640
0.54715222 0.57688874 1.6960001 4286807161
0.55501115 0.57625145 1.6960001 4286807159
0.5649941 0.57540184 1.6960001 4286741111
0.57497704 0.57455224 1.6960001 4286544244
0.5849176 0.57361776 1.6960001 4286610038
0.59324384 0.57317168 1.6960001 4286543993
0.50502545 0.58630532 1.6960001 4286148710
0.5159288 0.58517253 1.6960001 4287267716
0.5242551 0.58610713 1.6960001 4287201921
0.53823125 0.58729655 1.6960001 4286741117
0.54529369 0.58395112 1.6960001 4286675831
0.55458629 0.58432287 1.6960001 4286741371
0.56449854 0.58333164 1.6960001 4286609785
0.57242829 0.58283603 1.6960001 4286544252
0.47466943 0.59658921 1.6960001 4287465604
0.48513028 0.59536791 1.696 4284769390
0.49511334 0.59473068 1.6960001 4278389799
0.50462896 0.59294641 1.6960001 4283648841
0.51592886 0.59027016 1.6960001 4287333508
0.52633667 0.59027016 1.6960001 4287136384
0.53504527 0.59154457 1.6960001 4286807164
0.54507065 0.59145963 1.6960001 4286807165
0.55458635 0.59027016 1.6960001 4286741369
0.56053364 0.59027016 1.6960001 4286675831
0.45719922 0.60736871 1.6960001 4287465860
0.46537673 0.60513842 1.6960001 4287531399
0.47429767 0.60513842 1.6960001 4287399813
0.48430002 0.60486811 1.6960002 4287203465
0.49313083 0.60315603 1.6960001 4279968820
0.43861386 0.61703306 1.6960001 4287662476
0.44456118 0.61524886 1.6960001 4287596427
0.45537442 0.61432976 1.6960002 4287465350
0.46488115 0.61306828 1.6960001 4287530889
0.47578454 0.61108577 1.6960001 4287334276
0.41779828 0.62892765 1.6960001 4287596683
0.42523244 0.62669742 1.6960001 4287597193
0.43601191 0.62335211 1.6960001 4287728013
0.44456115 0.62298036 1.6960001 4287530888
0.45496899 0.62149352 1.6960001 4287465351
0.46240309 0.62000674 1.6960001 4287465348
0.38806176 0.63784862 1.6960001 4287991700
0.39301786 0.63685745 1.6960001 4287991701
0.40664709 0.63710523 1.6960001 4287596683
0.41519636 0.63524669 1.6960001 4287596939
0.42176318 0.63289255 1.6960001 4287597193
-0.66163784 0.64825642 1.6960001 4283874047
-0.65494716 0.64899981 1.6960001 4284333311
-0.64422077 0.64804405 1.6960001 4284136447
-0.634875 0.64899987 1.6960001 4284267007
-0.62744081 0.64974326 1.6960001 4284135423
0.35683841 0.64974326 1.6960001 4288320922
0.36427251 0.64974326 1.6960001 4288123544
0.37562647 0.64622885 1.6960002 4288057748
0.38479072 0.64439064 1.6960001 4287794322
0.39638799 0.64468807 1.6960001 4287728521
0.40553197 0.64342427 1.6960001 4287597191
0.41408122 0.64156568 1.6960001 4287662733
-0.7523343 0.65569055 1.6960001 4284268031
-0.70401239 0.65792084 1.6960001 4284990719
-0.69509149 0.65717739 1.6960001 4284859647
-0.68542713 0.65717745 1.6960001 4284859391
-0.67724955 0.65643394 1.6960001 4284465151
-0.66362029 0.65668178 1.6960001 4284070911
-0.65611541 0.65484095 1.6960001 4284070655
-0.64528275 0.65271688 1.6960001 4283873535
-0.634875 0.65271688 1.6960001 4284267007
-0.62446719 0.65346026 1.6960001 4284201215
0.3464306 0.65792084 1.6960001 4288255897
0.35475683 0.65509582 1.6960001 4288189336
0.36427253 0.65271688 1.6960001 4288123287
-0.76645911 0.66312468 1.6960001 4283807487
-0.73895288 0.66758519 1.6960001 4284530943
-0.72111094 0.66758519 1.6960001 4284530943
-0.71417242 0.66560274 1.6960001 4284268543
-0.70624262 0.66163784 1.6960001 4284793599
-0.68245345 0.66163784 1.6960001 4284991231
-0.67310768 0.66546112 1.6960001 4284400127
-0.66461152 0.66461158 1.6960001 4284071167
-0.65866423 0.66163784 1.6960001 4284530687
-0.61554623 0.66312468 1.6960001 4284200959
0.32710189 0.66758519 1.6960001 4288453278
0.33552721 0.66560274 1.6960001 4288387230
0.34420037 0.66349638 1.6960001 4288190107
0.35237792 0.66163784 1.6960001 4288124055
-0.79446101 0.67848855 1.6960001 4284396543
-0.78653133 0.67947978 1.6960001 4283871743
-0.77463669 0.67799294 1.6960001 4283806719
-0.76422888 0.6765061 1.6960001 4283807231
-0.75547314 0.67518449 1.6960001 4283676159
-0.74490017 0.67501926 1.6960001 4284202239
-0.73389763 0.67442453 1.6960001 4284465663
-0.72445625 0.67316079 1.6960001 4284400127
-0.7171461 0.67155004 1.6960001 4284203775
-0.67412722 0.67174834 1.6960001 4284662271
-0.66535491 0.6713022 1.6960001 4283874047
-0.61227524 0.67293775 1.6960001 4283873023
-0.6081121 0.67501926 1.6960001 4283610111
0.2958785 0.67947978 1.6960001 4288124058
0.30479947 0.67799288 1.6960001 4288650398
0.31570286 0.67452365 1.6960001 4288453281
0.32462382 0.6725412 1.6960001 4288453020
0.33394128 0.67174828 1.6960001 4288321435
0.34048331 0.67055881 1.6960001 4288189848
-0.79502743 0.68585187 1.6960001 4284134142
-0.78563923 0.68542713 1.6960001 4283609087
-0.77463669 0.68579888 1.6960001 4283675135
-0.76571566 0.68394023 1.6960001 4283806463
-0.75976843 0.68245345 1.6960001 4283741439
-0.6021648 0.68394029 1.6960001 4283674623
-0.59919113 0.68840075 1.6960001 4284395775
0.26019466 0.68840075 1.6960001 4288320401
0.27580634 0.68765736 1.6960001 4287794319
0.28596631 0.68245345 1.6960001 4287728528
0.2958785 0.68245345 1.6960001 4288387230
0.30554289 0.6831969 1.6960001 4288584607
-0.83113611 0.69732171 1.6960001 4285041835
-0.82518882 0.69583488 1.6960001 4284649905
-0.81507838 0.69553751 1.6960001 4284196080
-0.80437326 0.69519764 1.6960001 4283345919
-0.79545224 0.69397634 1.6960001 4283346175
-0.78504461 0.69434804 1.6960001 4283346431
-0.77612352 0.69137442 1.6960001 4283806719
-0.59770429 0.6943481 1.6960001 4284068095
0.2453264 0.69732171 1.6960001 4288122506
0.2548421 0.69613224 1.6960001 4288188816
0.26316831 0.69484371 1.6960001 4288123279
0.27421328 0.69392329 1.6960001 4287596941
-0.84303069 0.7092163 1.6960001 4285368476
-0.83232558 0.70267427 1.6960001 4285238695
-0.82717127 0.70128655 1.6960001 4284911535
-0.81032056 0.70178217 1.6960001 4283540223
-0.80734688 0.70029533 1.6960001 4283214079
-0.79644346 0.70128655 1.6960001 4283346175
-0.59027016 0.70475584 1.6960001 4282155750
-0.58729655 0.7092163 1.6960001 4283072477
0.21856351 0.70772946 1.6960001 4288124051
0.22451082 0.70445842 1.6960001 4288058003
0.23402652 0.70089006 1.6960001 4287860111
0.24606982 0.70103872 1.6960001 4287991692
0.25276053 0.70029533 1.6960001 4288057234
0.26656678 0.7024194 1.6960001 4287662989
0.27208927 0.70029533 1.6960001 4288123277
-0.84451753 0.71218997 1.6960001 4285302941
-0.58432287 0.71218997 1.6960001 4280968382
0.21558987 0.71218997 1.6960001 4288255386
0.30940634 0.16740826 1.705 4285867568
0.31239578 0.16740826 1.705 4285801522
0.27801731 0.17637657 1.705 4285930036
0.2850638 0.17488183 1.705 4285603382
0.2938613 0.17308819 1.7050002 4285735205
0.30542043 0.17388536 1.705 4285801531
0.31389052 0.17488183 1.705 4285735735
0.2352684 0.18863323 1.7050002 4281279820
0.24492 0.18812075 1.705 4281148477
0.25499865 0.18863325 1.7050002 4281473599
0.26456484 0.18982904 1.705 4285014852
0.27353317 0.18534486 1.705 4285997372
0.30708122 0.18484664 1.705 4286663786
0.31339228 0.18434839 1.705 4285605170
0.22749588 0.19640577 1.7050002 4281674835
0.23367405 0.1948114 1.705 4281411405
0.24214411 0.19281845 1.705 4281214023
0.31438875 0.19680436 1.705 4285476160
0.18683958 0.20676912 1.705 4282331733
0.19538082 0.2056303 1.705 4281674068
0.20417829 0.20358041 1.7050002 4280027969
0.21224976 0.20477618 1.705 4280751969
0.22570223 0.20278323 1.705 4281609041
0.31687993 0.20477617 1.705 4285015609
0.12465937 0.21852759 1.7050002 4283641168
0.13751394 0.21822864 1.705 4283250522
0.14199808 0.21822864 1.705 4283053913
0.16890298 0.21822864 1.705 4283581803
0.17450817 0.21636024 1.705 4283517033
0.18422383 0.21374449 1.705 4282397020
0.31762728 0.2152392 1.705 4285147194
0.095661864 0.22869165 1.705 4291180388
0.10579272 0.22636652 1.705 4290590314
0.11509318 0.22719692 1.705 4289867616
0.12406149 0.2227128 1.705 4284948810
0.13452451 0.22570223 1.705 4286655064
0.14498751 0.22570221 1.705 4285213782
0.15585817 0.22597399 1.705 4284233053
0.16541533 0.22570223 1.705 4283382373
0.31538522 0.22570221 1.705 4285155929
0.077725261 0.23765995 1.705 4289794635
0.085198849 0.23616523 1.705 4289662280
0.093793467 0.23429684 1.705 4289857608
0.1011425 0.23267756 1.705 4289989965
0.11509318 0.23168106 1.705 4291315820
0.13243189 0.23287687 1.7050002 4290788990
0.14498751 0.23168108 1.705 4288556135
0.31538522 0.23467052 1.705 4285748063
0.066066466 0.2436388 1.7050002 4289994840
0.074735828 0.2451335 1.705 4289796177
0.083704136 0.24363881 1.705 4289926219
0.31239578 0.24363881 1.705 4287392114
0.075143486 0.25532481 1.705 4289930071
0.082209416 0.25858599 1.705 4289470293
0.31239578 0.25559655 1.705 4286535534
0.077084668 0.26413777 1.705 4289995862
0.084202372 0.26556131 1.705 4289864016
0.092672437 0.26755428 1.705 4289600335
0.30940634 0.26456484 1.705 4286604134
0.31239578 0.26755428 1.705 4286474352
0.085198849 0.27054372 1.705 4289994835
0.094540834 0.27315947 1.705 4289732430
0.10398958 0.27737674 1.705 4289733461
0.30940634 0.27502787 1.705 4286867061
0.10836696 0.28474352 1.705 4289603155
0.11210375 0.28698558 1.705 4289603155
0.13362767 0.28788242 1.7050002 4289539421
0.30940634 0.28549087 1.705 4287063412
0.11509318 0.29296449 1.705 4289405520
0.12406148 0.29670125 1.705 4289537620
0.13493216 0.2941874 1.705 4289539421
0.14319384 0.29505706 1.7050002 4289408610
0.30641693 0.29744861 1.705 4285352779
0.12406149 0.30193275 1.705 4289537370
0.13751394 0.30043805 1.705 4289603163
0.14598399 0.30243102 1.705 4289472863
0.15495229 0.30741337 1.705 4289407323
0.16441883 0.30940634 1.705 4289474657
0.30641693 0.30342749 1.705 4285746771
0.15769261 0.31314313 1.705 4289538648
0.16628723 0.31501156 1.705 4289343066
0.17288889 0.31737816 1.705 4289409626
0.16890298 0.32136407 1.705 4289211230
0.17530891 0.32349938 1.705 4289277532
0.18325226 0.3261472 1.7050002 4289475427
0.30243099 0.32634649 1.705 4287198084
0.18609223 0.33294815 1.705 4289278561
0.1954342 0.33668491 1.705 4289149796
0.20328146 0.33930069 1.705 4289083234
0.30103594 0.3339197 1.7050002 4287132793
0.19879732 0.3422901 1.705 4289280358
0.20520322 0.34442544 1.705 4288952935
0.21224976 0.34677428 1.705 4288757095
0.30043805 0.34527954 1.705 4287395200
0.21673392 0.35350052 1.705 4288693872
0.22495486 0.3564899 1.705 4288562794
0.23168108 0.35723728 1.705 4288167784
0.22769517 0.36122322 1.705 4288365933
0.23467053 0.36421263 1.705 4287972462
0.24264234 0.36720204 1.705 4286660197
0.23765995 0.37218446 1.705 4287056758
0.24513355 0.37517387 1.7050002 4285875305
0.25260711 0.37666857 1.705 4284893031
0.30043805 0.37666857 1.705 4285735747
0.2563439 0.3819001 1.705 4285022551
0.26456484 0.38214922 1.705 4284428108
0.27592468 0.38414216 1.7050002 4285670460
0.28549087 0.3871316 1.705 4286990926
0.29505709 0.38474005 1.7050002 4285476910
0.28648734 0.39111754 1.705 4287120982
0.29146975 0.39161575 1.705 4285215041
0.9182542 0.46684983 1.705 4285492597
0.9222402 0.4663516 1.705 4285427056
0.86693567 0.47980404 1.705 4285492335
0.87381136 0.47860828 1.7050002 4285426543
0.88337755 0.47980404 1.705 4285426542
0.90654564 0.47681463 1.705 4285427055
0.9132719 0.47419885 1.705 4285492597
0.79817867 0.48877233 1.705 4286083189
0.85846561 0.48777589 1.705 4285558385
0.86544085 0.48578295 1.705 4285492339
0.8744092 0.48279348 1.705 4285426542
0.88551289 0.48407465 1.705 4285361006
0.89533538 0.48428822 1.705 4285492848
0.90355623 0.48354083 1.705 4285558897
0.78622097 0.49774066 1.705 4286084979
0.79518926 0.49475121 1.705 4286018678
0.80490494 0.4969933 1.705 4285887600
0.82956773 0.49624592 1.705 4278190343
0.83614445 0.4965449 1.7050002 4279900952
0.8451128 0.4965449 1.7050002 4285689183
0.85538554 0.49502298 1.705 4285689199
0.86544096 0.49325651 1.705 4285558131
0.74586362 0.50895101 1.705 4286084725
0.75525898 0.50756305 1.705 4286018420
0.76641595 0.50782996 1.705 4286150260
0.77575803 0.50521421 1.705 4286150006
0.78397894 0.50147742 1.705 4286084214
0.80864173 0.5007301 1.705 4285821550
0.81511879 0.50272304 1.705 4285887084
0.82358897 0.50521415 1.7050002 4283191389
0.65169644 0.51866668 1.705 4286081904
0.66440159 0.51567727 1.705 4285950057
0.70700103 0.51717198 1.705 4286676352
0.71671665 0.5179193 1.705 4286610820
0.72543579 0.51667374 1.705 4286413432
0.73540062 0.51567721 1.705 4286216055
0.74586368 0.51567727 1.705 4286084721
0.75483191 0.51567721 1.705 4286084210
0.76499605 0.51507932 1.7050002 4286216056
0.8220942 0.5126878 1.705 4285821555
0.63824403 0.52763498 1.705 4286410607
0.64541864 0.5252434 1.7050002 4286345326
0.65468591 0.52464551 1.705 4286345844
0.66365421 0.52464557 1.705 4286214514
0.67486459 0.52688766 1.705 4286742138
0.68458027 0.52614033 1.705 4286808443
0.69504321 0.52464557 1.705 4286545280
0.70550627 0.52464557 1.705 4286611073
0.71497279 0.52364904 1.705 4286545024
0.72344285 0.5216561 1.705 4286478715
0.61731797 0.53959274 1.705 4286412404
0.62591261 0.53585595 1.705 4286346095
0.63525456 0.5332402 1.705 4286411118
0.64422286 0.53318679 1.705 4286477429
0.65468585 0.53301597 1.7050002 4286410868
0.66600305 0.53361386 1.705 4286609790
0.67411727 0.53211915 1.705 4286742912
0.68458021 0.53211915 1.705 4286742399
0.69504327 0.53510863 1.705 4286611071
0.70301509 0.53461033 1.705 4286676352
0.59506339 0.54656804 1.705 4286740856
0.60416448 0.54616946 1.7050002 4286740343
0.61470222 0.54594529 1.705 4286478195
0.62105477 0.54482424 1.705 4286543730
0.66813833 0.54258215 1.705 4286808193
0.6830855 0.54258215 1.705 4286611073
0.70401156 0.54258215 1.705 4286610051
0.56440502 0.55513781 1.7050002 4286872958
0.57696062 0.55603456 1.705 4286675583
0.58400714 0.55539399 1.705 4286806137
0.59476131 0.55426812 1.705 4286805880
0.60498655 0.5541662 1.705 4286543223
0.61283386 0.55155045 1.705 4286806135
0.51667374 0.56849056 1.705 4287333254
0.54856104 0.56948704 1.705 4287136895
0.55539399 0.56692463 1.705 4286939259
0.56500286 0.56500292 1.705 4286741115
0.575167 0.56410605 1.7050002 4286740861
0.58473313 0.56410611 1.7050002 4286609267
0.59116042 0.56276083 1.705 4286674290
0.50969839 0.57845533 1.705 4287136635
0.5164246 0.57471859 1.705 4287332992
0.54616946 0.57606375 1.7050002 4287136381
0.55453986 0.57397121 1.705 4286741874
0.56201345 0.57247651 1.705 4286610289
0.48578295 0.58742362 1.705 4282401881
0.49475121 0.58742362 1.705 4278714899
0.50538033 0.58410197 1.705 4286412137
0.51388359 0.58383632 1.7050002 4287202175
0.52404761 0.58323848 1.7050002 4287136641
0.53585589 0.58518153 1.705 4287070589
0.54332948 0.58368683 1.705 4286939003
0.46545476 0.5981856 1.7050002 4287596422
0.47531989 0.59414983 1.705 4287465607
0.48518506 0.59160882 1.7050002 4285427570
0.49475121 0.59041309 1.705 4278257713
0.5007301 0.59041309 1.705 4278981409
0.53510857 0.59041309 1.705 4287200891
0.45813066 0.60610759 1.705 4287531145
0.46410951 0.60311812 1.705 4287531142
0.47083575 0.6023708 1.705 4287465609
0.43795198 0.61582327 1.705 4287596940
0.44559166 0.61432856 1.705 4287727498
0.45289916 0.61283386 1.705 4287726983
0.41403651 0.62927574 1.705 4287728528
0.42471308 0.62585926 1.705 4287597187
0.43436465 0.62150323 1.7050002 4287728012
-0.64123344 0.63824403 1.705 4283938559
0.37816331 0.63824403 1.705 4288189848
0.38414216 0.63674933 1.705 4288058263
0.39348418 0.63562828 1.705 4287991700
0.40656292 0.63674927 1.705 4287662733
0.41343862 0.63346094 1.7050002 4287596685
-0.74287421 0.64721233 1.705 4284596223
-0.73839003 0.64422286 1.705 4284596223
-0.66365421 0.64721233 1.705 4284268031
-0.6537891 0.64661443 1.7050002 4284070911
-0.64422286 0.64422292 1.705 4284136447
-0.63824403 0.64422286 1.705 4284463871
0.36535147 0.64593112 1.705 4288255131
0.3751739 0.64379579 1.705 4288189078
0.38414216 0.64123344 1.705 4288123542
0.39908934 0.64123344 1.705 4287794579
0.40207878 0.64272815 1.705 4287662733
-0.74586362 0.65618062 1.705 4284596735
-0.71596926 0.65767533 1.705 4284399359
-0.70650274 0.65717703 1.705 4284924671
-0.69504327 0.65692794 1.705 4284728575
-0.68393964 0.65489948 1.705 4284793855
-0.67384535 0.65509355 1.705 4284333823
-0.66664362 0.65244383 1.705 4284136959
-0.65418762 0.65020174 1.705 4284136447
-0.64123344 0.65020174 1.705 4283610623
-0.63375986 0.65020174 1.705 4284069887
-0.62030739 0.65917003 1.705 4284661247
0.33481652 0.65917003 1.705 4288518818
0.34500778 0.65427828 1.705 4288321691
0.35339373 0.65404528 1.705 4288321178
0.36471087 0.65020174 1.705 4288254875
0.37218446 0.65020174 1.705 4288123542
-0.7832315 0.66813833 1.705 4283806719
-0.77575797 0.66813833 1.705 4283873279
-0.7638002 0.66813833 1.705 4283807999
-0.75707394 0.6658963 1.705 4284005119
-0.74436891 0.66664362 1.705 4284531199
-0.73330796 0.66634464 1.7050002 4284399871
-0.72493762 0.66664368 1.705 4284399871
-0.71796227 0.66315597 1.705 4284202495
-0.70700097 0.6621595 1.705 4284924927
-0.68009609 0.66365421 1.705 4284793855
-0.67710662 0.66365421 1.705 4284399359
-0.62030739 0.6621595 1.705 4284398591
-0.61731797 0.66514891 1.705 4284463871
0.30940634 0.66664362 1.705 4288188052
0.31463787 0.66739094 1.705 4288518559
0.32435352 0.66514885 1.705 4288584609
0.33365399 0.66448462 1.705 4288452769
0.3422901 0.6621595 1.705 4288387228
-0.7936945 0.67710662 1.705 4283740927
-0.78472632 0.67561191 1.705 4283675391
-0.77490383 0.67454427 1.705 4283873023
-0.76529497 0.67262244 1.705 4283873535
-0.75533015 0.67312074 1.705 4284070399
-0.74735832 0.6726225 1.705 4284530687
-0.73639709 0.67212421 1.705 4284596735
-0.72792703 0.6711278 1.705 4284728575
-0.61432856 0.67212421 1.705 4284003583
-0.60685498 0.67561185 1.705 4283804670
0.29445919 0.67710662 1.705 4287792782
0.30532983 0.67438895 1.705 4288189081
0.31538522 0.67262244 1.705 4288585119
0.32285881 0.6711278 1.705 4288453279
-0.81163114 0.68607497 1.705 4285511935
-0.80789435 0.6868223 1.705 4286696191
-0.79518926 0.6830855 1.705 4283740415
-0.78547359 0.68233818 1.705 4283806207
-0.7763558 0.68248761 1.7050002 4283675135
-0.60461289 0.6830855 1.705 4284329215
-0.5934025 0.68756968 1.705 4281559994
0.24862121 0.68806791 1.705 4288123022
0.25559655 0.68607497 1.705 4288189070
0.26307011 0.68607503 1.705 4288189328
0.27532682 0.68786871 1.7050002 4288123027
0.28549087 0.6830855 1.705 4288056721
0.29371184 0.68084347 1.705 4287596946
0.30043805 0.68009609 1.705 4288189335
-0.82444298 0.693762 1.705 4284587477
-0.81536794 0.69504327 1.705 4284067071
-0.80664873 0.69305032 1.705 4284397311
-0.59938139 0.69803268 1.705 4283278591
0.21673392 0.69803268 1.705 4288123279
0.22794428 0.69579059 1.705 4288254096
0.2350442 0.69504321 1.705 4287991436
0.24554119 0.695315 1.705 4288057225
0.25516948 0.69418913 1.705 4288254606
0.26605958 0.69354856 1.705 4288189331
0.27054372 0.69504327 1.705 4288123285
-0.84750432 0.70999044 1.705 4285434263
-0.79967344 0.70102209 1.705 4283740415
-0.59240603 0.70700103 1.705 4283008987
0.19879732 0.70999044 1.705 4287991440
0.20537405 0.70879465 1.7050002 4287925648
0.21535414 0.7058512 1.705 4288057746
0.22470574 0.70301509 1.705 4288123799
0.23467052 0.70102209 1.705 4287926157
0.24064939 0.70102209 1.705 4287991690
0.27054372 0.70102209 1.705 4287924360
-0.58443421 0.71596926 1.705 4280441245
0.19580789 0.7144745 1.705 4287859855
0.20477617 0.7144745 1.705 4287991693
0.21299712 0.71372718 1.705 4287926420
0.27782005 0.16669202 1.7129999 4285143846
0.28570417 0.16781832 1.7130002 4285603373
0.2958408 0.16609134 1.7130001 4285603631
0.30485117 0.16669202 1.7130002 4285735722
0.31235984 0.16218683 1.7130001 4285735989
0.32527471 0.16849411 1.7130001 4285603626
0.26280275 0.17870587 1.7130001 4280095538
0.2748166 0.17570242 1.7130001 4285341490
0.28382695 0.17269894 1.7130001 4285865270
0.31986848 0.17570241 1.7129999 4285669170
0.3258754 0.17570241 1.7130002 4285603370
0.2252595 0.18771625 1.7130001 4281932095
0.23517092 0.18471278 1.7130001 4281148749
0.24553284 0.18396191 1.7130001 4281016895
0.25550863 0.18428372 1.7130002 4281211707
0.26460481 0.18591417 1.7130001 4284034386
0.27256399 0.18396193 1.7130001 4285997112
0.31911761 0.18546365 1.7130001 4285538098
0.32549998 0.18433735 1.7130002 4285668915
0.1952249 0.19732732 1.7130001 4284241010
0.20616606 0.19758476 1.7130002 4291941871
0.21474738 0.19672662 1.7130002 4287861686
0.22375774 0.19426927 1.7130001 4279966014
0.31866708 0.19312248 1.7130001 4285342266
0.32347265 0.19612594 1.7130001 4285669949
0.14666896 0.20773931 1.7129999 4282987857
0.15267588 0.20773931 1.7129999 4283252060
0.16583388 0.20745327 1.7130002 4282988632
0.17570241 0.20723873 1.7130002 4282790743
0.1850882 0.20536156 1.7130002 4282068051
0.19572549 0.20273356 1.7129999 4281212489
0.20874047 0.20273355 1.7130001 4281540697
0.21574855 0.20523643 1.7130002 4281411675
0.22150518 0.20498614 1.7130001 4281543506
0.32287195 0.20573701 1.7129999 4285932855
0.10361937 0.21775085 1.7130001 4282981190
0.11863667 0.21775085 1.7130001 4282786123
0.12389272 0.21549825 1.7130001 4283050835
0.1357993 0.2147474 1.7130002 4283183446
0.14609687 0.2147474 1.7130002 4283053146
0.15430276 0.2151228 1.7130002 4283515494
0.16478072 0.21447435 1.7130001 4283516775
0.17570241 0.21174394 1.7129999 4283320165
0.18471278 0.21174394 1.7130001 4281938010
0.21775085 0.21174394 1.7130001 4282069593
0.32287195 0.21474738 1.7129999 4285408050
0.087600917 0.22876354 1.7129999 4291569265
0.094608992 0.22676122 1.7130001 4291113831
0.10411995 0.22275661 1.7130002 4288621389
0.11563321 0.22225605 1.7130002 4286522955
0.13215223 0.22075431 1.7130001 4283971677
0.14716953 0.22075431 1.7130001 4283251040
0.15392733 0.22150517 1.7130001 4283318113
0.16368857 0.22150517 1.7130001 4283384679
0.31986848 0.22525951 1.7130001 4285539895
0.32287195 0.22375779 1.7129999 4285079090
0.066076115 0.23727334 1.7130001 4289929561
0.075086497 0.23577161 1.7130002 4289663823
0.08559861 0.23276813 1.7129999 4289921602
0.31836677 0.23426989 1.7130001 4285875275
0.063373007 0.24598336 1.7130001 4290060630
0.31686503 0.24478199 1.7129999 4285286995
0.06490811 0.25512725 1.7130002 4290257754
0.070581309 0.2597993 1.7130001 4290126940
0.31686503 0.25529408 1.7130001 4286864752
0.067577846 0.26280275 1.7130001 4290257495
0.071782693 0.26640689 1.7130001 4290191961
0.31566364 0.2652055 1.7130001 4286670194
0.07808996 0.27331486 1.7130001 4290191959
0.086199299 0.27601796 1.7130001 4289864273
0.091605529 0.27782005 1.7130001 4289929295
0.31461245 0.27406573 1.7130001 4286540146
0.096611291 0.28182468 1.7129999 4289732681
0.10361937 0.28532869 1.7130002 4289798739
0.31386158 0.28382695 1.7129999 4286671725
0.10962629 0.29433906 1.7130001 4289471056
0.11563321 0.29884428 1.7129999 4289470538
0.13065051 0.29884428 1.7130001 4289472858
0.3108581 0.2958408 1.7129999 4287260786
0.11713494 0.30334944 1.7130001 4289536847
0.12464359 0.30785465 1.7129999 4289602650
0.13455501 0.30545187 1.7130001 4289472090
0.14366551 0.3068535 1.7129999 4289538139
0.3108581 0.30485117 1.7130001 4286603373
0.12464359 0.3108581 1.7129999 4289668186
0.1374083 0.31160897 1.7130001 4289471832
0.14633524 0.31419528 1.7130002 4289536855
0.15424912 0.31772313 1.7130002 4289471320
0.16218683 0.31986848 1.7130001 4289407836
0.30785465 0.31536329 1.7130001 4286274150
0.15648027 0.32527471 1.7130001 4289472089
0.16478074 0.32614842 1.7130001 4289342304
0.17420068 0.32887888 1.7130001 4289145687
0.30785465 0.3258754 1.7129999 4287064698
0.15768164 0.33188233 1.7130001 4289342809
0.16669203 0.33413491 1.7130002 4289343327
0.17570242 0.33488575 1.7130002 4289212253
0.18271048 0.33688807 1.7129999 4289212766
0.30635291 0.33488581 1.7130001 4287197820
0.17570241 0.3408927 1.7130001 4289081952
0.18571393 0.34289503 1.7130002 4289017444
0.19481535 0.34635356 1.7130001 4288690277
0.20423529 0.34990308 1.7130001 4288627310
0.30485117 0.34539789 1.7130001 4286803059
0.1974775 0.35365742 1.7130001 4287445358
0.20616606 0.35505185 1.7130002 4287774064
0.21324566 0.35741174 1.7130001 4288562543
0.30485117 0.35591003 1.7129999 4285352525
0.21674968 0.36291805 1.7129999 4288694640
0.22409147 0.36558783 1.7130002 4288038768
0.30485117 0.36341864 1.7130001 4284823325
0.22676124 0.37317991 1.7130002 4286792818
0.2354379 0.37559935 1.7130002 4287318387
0.24177852 0.37993768 1.7130001 4287448422
0.30485117 0.3709273 1.7130001 4285540414
0.23877507 0.38294116 1.7130001 4287971955
0.24553284 0.383692 1.7130001 4287512676
0.2546505 0.3868027 1.7130002 4286135643
0.26640689 0.38774666 1.7130001 4284624716
0.27406573 0.38819721 1.7130001 4285605180
0.29884428 0.38894805 1.7130001 4285539882
0.30184773 0.38444287 1.7130001 4285539905
0.25829756 0.39345324 1.7130001 4285151323
0.26280275 0.39345324 1.7130001 4284429913
0.2754173 0.39315289 1.7130001 4285605437
0.2844944 0.39562243 1.7130002 4285868606
0.29634139 0.39495501 1.7130002 4285539644
0.28743112 0.40216333 1.7130001 4285802302
0.29283735 0.40246361 1.7130001 4285737279
0.92656738 0.44901726 1.7130001 4285426542
0.917557 0.45802766 1.7130001 4285624691
0.92476529 0.45622554 1.7130001 4285492592
0.90614384 0.46583661 1.7130001 4285624176
0.91455352 0.46403456 1.7130002 4285558641
0.92313486 0.46317646 1.7130002 4285492849
0.80042207 0.47905186 1.7130001 4285953140
0.83946705 0.47755015 1.7130001 4285755500
0.85448432 0.47755015 1.7130002 4285558127
0.86595213 0.47604844 1.7130001 4285492334
0.87513322 0.47454664 1.7130002 4285557613
0.88451898 0.47642383 1.7130002 4285361005
0.89503109 0.47454664 1.7129998 4285558130
0.90527022 0.4741371 1.7130001 4285558384
0.91395283 0.47124285 1.7130001 4285492339
0.77188921 0.48505878 1.7130001 4285887347
0.79591691 0.48806223 1.7130001 4286018682
0.80375934 0.48572624 1.7130002 4286149747
0.81586844 0.48591691 1.7130002 4281481033
0.82407439 0.48543423 1.7130002 4278190343
0.83546239 0.48605993 1.7130002 4283188022
0.845474 0.48806223 1.7129999 4285886065
0.85448432 0.48505878 1.7130002 4285623668
0.86249369 0.48405764 1.7130002 4285492335
0.89653283 0.48205534 1.7129999 4285492849
0.90554315 0.48205534 1.7129999 4285558642
0.73584771 0.49707264 1.7130001 4286413692
0.74395704 0.49647194 1.7130001 4286347128
0.7553702 0.49587125 1.7130001 4286018677
0.76438063 0.49444461 1.7130002 4285952627
0.77399164 0.49406919 1.7130001 4285821553
0.78615558 0.49482 1.7130001 4286084724
0.79441518 0.49356857 1.7130002 4286018679
0.80823106 0.49346846 1.7130001 4286084465
0.8154394 0.49406916 1.7130002 4285361265
0.82444972 0.49406916 1.7130002 4279047215
0.83466148 0.49346846 1.7130001 4279571477
0.84547406 0.49321103 1.7130002 4285820520
0.85388362 0.49226707 1.7130001 4285688940
0.66676813 0.50908649 1.7130001 4286016104
0.6973033 0.50808531 1.7129999 4286939780
0.70431137 0.50758475 1.7130002 4286807426
0.7153241 0.50708413 1.7130002 4286545279
0.7253356 0.5078851 1.7130001 4286545534
0.73461896 0.50499082 1.7130001 4286347645
0.74455768 0.50428092 1.7129998 4286150264
0.75506985 0.50368023 1.7130001 4285953142
0.7647143 0.50341326 1.7130002 4286018416
0.77439213 0.50207835 1.7130002 4285952882
0.78390306 0.50007612 1.7130001 4286215545
0.81694114 0.50007612 1.7130001 4285821810
0.82444978 0.50082695 1.7130001 4282270557
0.83045667 0.50007612 1.7130001 4278190080
0.65625602 0.51809686 1.7129999 4286212460
0.66526639 0.51434255 1.7130001 4286015845
0.67427677 0.51509339 1.7129999 4285949543
0.68516427 0.51621968 1.7130002 4286347128
0.69530106 0.51509339 1.7130002 4286611330
0.70393592 0.51471794 1.7130002 4286676098
0.71496004 0.51482028 1.7130001 4286610816
0.72576469 0.51423526 1.7130002 4286545276
0.73434597 0.51208991 1.7129999 4286216311
0.74185461 0.51208991 1.7130001 4286084729
0.63566095 0.52496189 1.7130002 4286410605
0.64324099 0.52410382 1.7130002 4286279017
0.65325254 0.52210146 1.7129999 4286213231
0.66426522 0.52210146 1.7129999 4286082925
0.67427671 0.52410376 1.7130002 4286017140
0.68478882 0.52260202 1.7130002 4286611066
0.6945501 0.52185118 1.7130001 4286676611
0.70280963 0.52110028 1.7130001 4286611073
0.71031827 0.52110028 1.7130001 4286676094
0.61721104 0.53912109 1.7130001 4286805363
0.62471974 0.53536671 1.7130002 4286542963
0.63523179 0.53011066 1.7129999 4286344814
0.64424217 0.53011066 1.7130001 4286214511
0.67127329 0.53011066 1.7130001 4286477434
0.58717644 0.54813147 1.7130001 4286610039
0.59468508 0.54512799 1.7130001 4286806649
0.60519713 0.5433259 1.7130001 4286740597
0.61320645 0.54412681 1.7130002 4286543990
0.55614066 0.55614066 1.7129999 4287135879
0.56314874 0.55513954 1.7129999 4287004546
0.57576329 0.5541383 1.7130001 4286675581
0.58417296 0.55233628 1.7130001 4286675577
0.59017986 0.55263662 1.7130001 4286806647
0.60820067 0.55113488 1.7130001 4286609789
0.53011066 0.56915569 1.7130001 4287202177
0.54813147 0.56915569 1.7130001 4287136895
0.55413836 0.56529409 1.7130002 4287136384
0.56014526 0.561647 1.7130001 4287070590
0.57516259 0.56014526 1.7130001 4286675581
0.50758475 0.57666433 1.7130001 4287596162
0.51359165 0.57516259 1.7130002 4287267969
0.5256055 0.57516259 1.7130001 4287202177
0.5316124 0.57516259 1.7130001 4287267713
0.54587889 0.57591343 1.7130001 4287202175
0.47755015 0.58717644 1.7130001 4287728518
0.48505878 0.58717644 1.7129999 4284047466
0.49406919 0.58717644 1.7129999 4278192682
0.50358009 0.58317184 1.7130002 4284832069
0.51509339 0.58116949 1.7130001 4287136635
0.52710724 0.58116949 1.7130001 4287136897
0.53461587 0.58379757 1.7130002 4287136384
0.54212451 0.58116949 1.7130001 4287202175
0.46463528 0.59678757 1.7130001 4287662218
0.4737958 0.59280789 1.7130002 4287531142
0.48205534 0.59017986 1.7130001 4287598229
0.49707264 0.59017986 1.7130001 4278780712
0.44901726 0.60669893 1.7130001 4287596935
0.45652592 0.60669893 1.7130001 4287596684
0.46103111 0.60219371 1.7130001 4287662476
0.42799306 0.61721104 1.7130001 4287859850
0.4347508 0.6164602 1.7130001 4287531148
0.44451207 0.61270583 1.7130001 4287596937
0.45352244 0.61120409 1.7130001 4287596935
0.37993768 0.62922484 1.7130001 4288386459
0.38444287 0.62922484 1.7130001 4288255130
0.39533043 0.62659681 1.7130002 4288254868
0.40997228 0.62922484 1.7130001 4288254360
0.41597924 0.6277231 1.7130002 4287991438
0.42498958 0.62371856 1.7130002 4287597449
0.43324912 0.62096536 1.7130001 4287597194
-0.6537531 0.63673353 1.7130002 4284333055
-0.64424217 0.63608992 1.7130002 4284200959
-0.63823527 0.63823527 1.7130001 4284135935
0.36692271 0.63723415 1.7129999 4288387228
0.37543249 0.63523185 1.7129999 4288386971
0.3859446 0.63373005 1.7130002 4288123801
0.39495498 0.63297915 1.7130001 4288057491
0.40546709 0.63523179 1.7130002 4287925906
0.41597921 0.63222831 1.7130001 4287662478
-0.73359513 0.64649475 1.7130001 4284005119
-0.7253356 0.6451003 1.7130002 4284070655
-0.71482342 0.64574385 1.7130002 4284727807
-0.70388228 0.6451003 1.7130002 4284859647
-0.69590169 0.64604425 1.7130001 4284596735
-0.6877923 0.64574391 1.7130001 4284596735
-0.67227441 0.64624447 1.7129999 4284070655
-0.66526645 0.64574391 1.7130002 4284201983
-0.65592229 0.64357471 1.7130002 4284136703
-0.64424217 0.64424217 1.7130001 4284004607
-0.63673353 0.64424223 1.7130002 4284004351
0.33788925 0.64574391 1.7130001 4288519586
0.34539786 0.64574397 1.7130002 4288518814
0.35628545 0.64461762 1.7130002 4288452503
0.36449131 0.6433841 1.7130002 4288386460
0.37317991 0.64198959 1.7130001 4288320667
0.40396535 0.64123869 1.7130001 4287728784
-0.75386846 0.65925944 1.7130001 4284662015
-0.74404943 0.65510082 1.7129999 4284596479
-0.73434597 0.65525484 1.7130002 4284399359
-0.72533554 0.65445393 1.7130001 4284267519
-0.71482342 0.6532526 1.7129999 4284793087
-0.70431137 0.65325254 1.7130002 4285187583
-0.69530106 0.65325254 1.7130002 4284859647
-0.68457431 0.65239441 1.7130002 4284728063
-0.67427677 0.65024906 1.7129999 4284334335
-0.63448095 0.6509999 1.7130001 4284266495
-0.62562072 0.65745735 1.7130001 4284201215
0.30635291 0.65925944 1.7130001 4287989646
0.31626433 0.6586588 1.7130001 4288517528
0.32617575 0.65565526 1.7130001 4288649632
0.33488575 0.65475428 1.7129999 4288584350
0.34346709 0.65282345 1.7130002 4288453020
0.35515916 0.6509999 1.7130001 4288452763
-0.75499469 0.66564184 1.7130002 4284661759
-0.74425745 0.6646657 1.7130001 4284728063
-0.73484653 0.66426522 1.7130002 4284662527
-0.72683728 0.66376466 1.7130001 4284070911
-0.62021446 0.66526639 1.7130001 4284003839
0.29784313 0.66726875 1.7129999 4287595649
0.30485117 0.66526645 1.7130002 4287529860
0.31596395 0.6646657 1.7130001 4288451993
0.3258754 0.66226292 1.7129999 4288715680
-0.79441518 0.67627907 1.7129999 4283412735
-0.78420341 0.67427677 1.7130001 4283871999
-0.75386846 0.67127329 1.7130001 4284465151
-0.74035287 0.67127329 1.7130001 4284005631
-0.61270583 0.67427677 1.7130001 4284330495
-0.60820067 0.67277503 1.7130001 4283012343
0.23877507 0.67728025 1.7130001 4288451991
0.24778545 0.67728025 1.7130001 4288450960
0.2564621 0.67494422 1.7130002 4287925132
0.26355362 0.67502761 1.7130001 4287991182
0.27782005 0.67728025 1.7130001 4288452243
0.28622973 0.67667949 1.7130001 4288254352
0.29584083 0.67427683 1.7130002 4287793290
0.3041003 0.67202419 1.7130001 4287661449
-0.81844282 0.68929404 1.7130001 4284066815
-0.79441518 0.68328714 1.7130001 4283346431
-0.60219371 0.68629062 1.7130001 4281958120
-0.59678751 0.68749201 1.7130001 4281363130
0.21775085 0.68629062 1.7130001 4287793807
0.22616053 0.68659091 1.7130001 4288057236
0.23607194 0.68568987 1.7130001 4288188820
0.24478197 0.68478888 1.7129999 4287925646
0.25479352 0.68228602 1.7130002 4287990922
0.26666433 0.68543243 1.7130002 4288057999
0.27481663 0.68528944 1.7130002 4288123538
0.2848281 0.68228602 1.7130002 4288123281
-0.81769198 0.695301 1.7130001 4284263935
-0.60219371 0.695301 1.7129999 4282684660
-0.59768856 0.69379926 1.7130001 4281955787
0.20573699 0.69830447 1.7129999 4288122762
0.21574855 0.69630218 1.7130002 4288056719
0.22435844 0.69500071 1.7130001 4288319380
0.23502074 0.69379926 1.7130001 4288253582
0.24277969 0.69329864 1.7129999 4287990660
-0.59768856 0.70431137 1.7130001 4282878445
0.16669202 0.70731479 1.7129999 4288518038
0.19772778 0.70531255 1.7130002 4287991183
0.20573699 0.70431137 1.7130002 4287925386
0.21324566 0.70280957 1.7130001 4287926156
0.22225603 0.70130789 1.7130001 4288188815
-0.59017986 0.71332175 1.7129999 4280705206
-0.58717644 0.71482348 1.7130001 4280900501
0.14666896 0.71732634 1.7130002 4288453016
0.15467821 0.71523309 1.7130001 4288518042
0.16519029 0.71482354 1.7129998 4288386709
0.17527334 0.71718341 1.7130002 4288584350
0.18504649 0.7159915 1.7130002 4288386708
0.19372319 0.71298796 1.7130002 4287860113
0.20273355 0.71031827 1.7130001 4287991442
0.32758754 0.13737541 1.7220001 4285932862
0.33060679 0.13737541 1.7220001 4285669433
0.30343363 0.14945237 1.7220001 4285603879
0.32758754 0.14039466 1.7220001 4285604660
0.33060679 0.14542672 1.7220001 4285472554
0.27927971 0.1585101 1.7220001 4283635758
0.28733101 0.15750368 1.7220001 4285077291
0.2943759 0.15586826 1.7220001 4285602609
0.30535498 0.15576535 1.7220001 4285669416
0.31400096 0.15700048 1.7220001 4285735989
0.32543093 0.15505955 1.7220001 4285603374
0.33060679 0.15549086 1.7220001 4285077282
0.26267385 0.16756782 1.7220001 4281015345
0.27496651 0.1649799 1.7220001 4282652982
0.2857495 0.16368593 1.7220001 4285603118
0.29286629 0.16152933 1.7220001 4285537071
0.30494326 0.16152933 1.7220001 4285734959
0.31852981 0.16454858 1.7220001 4285670453
0.32413697 0.16368593 1.7220001 4285669166
0.3327634 0.1649799 1.7220001 4285405480
0.23701034 0.17813516 1.7220001 4280622916
0.24506167 0.17729646 1.7220001 4280951621
0.25550318 0.17624813 1.7220001 4280885051
0.26388156 0.17511593 1.7220001 4281079345
0.272109 0.17398369 1.7220001 4283504956
0.31852981 0.17058706 1.7220001 4285669685
0.32154906 0.17058706 1.7220001 4285734963
0.33422989 0.17421016 1.7220001 4285537583
0.19474098 0.18870249 1.7220001 4284831882
