# .PCD v0.7 - Point Cloud Data file format
VERSION 0.7
FIELDS x y z rgb
SIZE 4 4 4 4
TYPE F F F U
COUNT 1 1 1 1
WIDTH 1096
HEIGHT 1
VIEWPOINT 0 0 0 1 0 0 0
POINTS 1096
DATA ascii
-0.49496952 0.056558151 1.5640001 4290683551
-0.48628581 0.058043513 1.5640001 4290683544
-0.47851622 0.058957588 1.5640001 4290881437
-0.45109409 0.058957588 1.5640001 4290946215
-0.44835189 0.058957588 1.5640001 4290880670
-0.42641419 0.058957588 1.5640001 4291010719
-0.6128847 0.0616998 1.5640001 4289895826
-0.60465801 0.0616998 1.5640001 4290093457
-0.59506029 0.0616998 1.5640001 4289697166
-0.58820474 0.0616998 1.5640001 4290288522
-0.56078261 0.0616998 1.5640001 4290551710
-0.55255598 0.0616998 1.5640001 4290224023
-0.54615748 0.061699796 1.5640001 4290486169
-0.53610271 0.0616998 1.5640001 4290616730
-0.52513385 0.061699796 1.5640001 4290552218
-0.51416498 0.0616998 1.5640001 4290618268
-0.49496952 0.061699796 1.5640001 4290421661
-0.48521942 0.063527942 1.5640001 4290618275
-0.4744029 0.064442016 1.5640001 4291011742
-0.4642567 0.063345127 1.5640001 4291208354
-0.45465899 0.063893571 1.5640001 4290880671
-0.44506121 0.064442016 1.5640001 4291011741
-0.43464082 0.065813124 1.5640001 4290814112
-0.424586 0.0647467 1.5640001 4291010464
-0.41750196 0.065127566 1.5640001 4291011234
-0.41544533 0.075410865 1.5640001 4291011240
0.25502583 0.097348571 1.5640001 4286933857
0.26553765 0.096434504 1.5640001 4287590003
0.27422133 0.097348571 1.5640001 4287130715
0.28244799 0.097348571 1.5640001 4287131238
0.33866334 0.097348571 1.5640001 4286801518
0.34551889 0.097348571 1.5640001 4286933338
0.35511664 0.097348571 1.5640001 4286801755
0.36060104 0.097348571 1.5640001 4286932828
0.37636876 0.096663021 1.5640001 4286866535
0.38528097 0.097348571 1.5640001 4286932322
0.39487872 0.097348571 1.5640001 4286801511
0.41544533 0.097348571 1.5640001 4286669922
0.42367196 0.097348571 1.5640001 4286669157
0.57997811 0.097348571 1.5640001 4285685844
0.58683366 0.097348571 1.5640001 4286341467
0.59506029 0.097348571 1.5640001 4286013801
0.64853346 0.097348571 1.5640001 4285555291
0.65538895 0.097348571 1.5640001 4281609785
0.66498673 0.097348571 1.5640001 4278190597
0.2558485 0.10063922 1.5640001 4286934119
0.28519019 0.10009079 1.5640001 4287065448
0.29204571 0.10009079 1.5640001 4287393641
0.30392864 0.10009078 1.5640001 4286999399
0.31535453 0.10009079 1.5640001 4285749856
0.32495227 0.10009078 1.5640001 4281870383
0.33546409 0.10100487 1.5640001 4284763983
0.34414777 0.10009079 1.5640001 4286998633
0.35511661 0.10009078 1.5640001 4286865496
0.36562839 0.10100487 1.5640001 4286997086
0.37486055 0.10063922 1.5640001 4286866278
0.385281 0.10009078 1.5640001 4286866269
0.39533576 0.10100487 1.5640001 4286800996
0.40584758 0.10146189 1.5640001 4286867292
0.41544533 0.10009078 1.5640001 4286932070
0.42504308 0.10077634 1.5640001 4286800741
0.4357377 0.10447834 1.5640001 4286736236
0.44286746 0.10626076 1.5640001 4286801773
0.45383629 0.10374707 1.5640001 4286671209
0.46480513 0.10146189 1.5640001 4286737763
0.47358027 0.10283301 1.5640001 4286868836
0.48509756 0.10502677 1.5640001 4286671207
0.49496952 0.10626076 1.5640001 4286671458
0.50559556 0.10386133 1.5640001 4286605920
0.51498765 0.10228457 1.5640001 4286605672
0.52513385 0.10077634 1.5640001 4286408802
0.53564572 0.10100486 1.5640001 4286408554
0.54628807 0.10400824 1.5640001 4286209633
0.55529815 0.10603224 1.5640001 4285946714
0.56509179 0.10322475 1.5640001 4285881176
0.57586479 0.10214745 1.5640001 4286145117
0.584777 0.10077634 1.5640001 4286341230
0.59094697 0.10009079 1.5640001 4286275428
0.60465807 0.10009078 1.5640001 4286145128
0.61516982 0.10329004 1.5640001 4285619814
0.62440199 0.10228457 1.5640001 4285685864
0.63537085 0.10173611 1.5640001 4285817702
0.64524281 0.102833 1.5640001 4285619810
0.65519315 0.10126603 1.5640001 4282136646
0.6622445 0.10146189 1.5640001 4278190103
0.6741274 0.10009078 1.5640001 4283643958
0.68509626 0.10100486 1.5640001 4284896346
0.69515109 0.10374707 1.5640001 4284633180
0.70337772 0.10374707 1.5640001 4284305760
0.71544349 0.10557522 1.5640001 4284306263
0.73491323 0.10831743 1.5640001 4284437326
0.74588203 0.10831743 1.5640001 4284306510
0.75273758 0.10831743 1.5640001 4284175185
0.71983099 0.11517296 1.5640001 4284436563
0.72492367 0.11301836 1.5640001 4284239695
0.73171395 0.1119737 1.5640001 4284567890
0.74633902 0.11105964 1.5640001 4284371792
0.75547981 0.1119737 1.5640001 4284370260
0.76590014 0.11325341 1.5640001 4284174163
0.77467531 0.11380186 1.5640001 4283977813
0.78454721 0.11270496 1.5640001 4283977558
0.79478484 0.1119737 1.5640001 4283977554
0.80538809 0.11599562 1.5640001 4283978324
0.81471157 0.11818939 1.5640001 4283453003
0.82449216 0.11654406 1.5640001 4283584592
0.83568949 0.11448741 1.5640001 4283780947
0.84185946 0.11654407 1.5640001 4283977299
0.81443739 0.12202849 1.5640001 4283452750
-0.8810029 0.026219055 1.5743333 4287794825
-0.87532276 0.026584039 1.5755 4287926931
-0.86597222 0.025298944 1.5743334 4287861643
-0.85507625 0.026232494 1.5750002 4287993737
-0.84365159 0.028972737 1.57375 4288320904
-0.83432424 0.028464139 1.5762 4288452230
-0.82778549 0.02906939 1.5790001 4288386698
-0.78764206 0.027685134 1.5790001 4288386433
-0.87510616 0.031696759 1.572 4287992974
-0.86959374 0.031696759 1.572 4288124303
-0.83561277 0.031767331 1.5755 4288385678
-0.82640123 0.031837903 1.5790001 4288320907
-0.81171268 0.034453001 1.572 4287993487
-0.80476928 0.034989081 1.5755 4288124303
-0.79509991 0.035904761 1.5755001 4287991944
-0.78532511 0.036950186 1.5727001 4288319368
-0.77426672 0.038642589 1.5743333 4288517519
-0.76655948 0.038670205 1.5755 4288648842
-0.75607353 0.038238447 1.5766668 4288582294
-0.74057734 0.037374929 1.5790001 4288845452
-0.73504037 0.037374929 1.5790001 4288779658
-0.72842121 0.038238447 1.5766667 4288910981
-0.63537383 0.037374929 1.5790001 4289435804
-0.77069998 0.041432582 1.5755 4288452237
-0.76414824 0.042321667 1.5743335 4288452490
-0.75676119 0.042378817 1.5740001 4288582799
-0.74352485 0.043456431 1.5757694 4288648334
-0.73496675 0.0447057 1.5741001 4288714125
-0.72540867 0.044168111 1.5746253 4288910986
-0.71496797 0.044330001 1.5758183 4289042570
-0.70482117 0.046379421 1.5760001 4289042313
-0.6942752 0.045575123 1.5755001 4289041544
-0.68511319 0.045608871 1.5766668 4289107342
-0.67555636 0.046357416 1.5764546 4289173389
-0.6650666 0.045945987 1.5763752 4289304715
-0.65465569 0.045233756 1.5743335 4289173384
-0.64491415 0.044083029 1.5744709 4289304719
-0.63556725 0.044337552 1.5768465 4289370250
-0.62666428 0.047596611 1.5769999 4289238921
-0.61489189 0.047298621 1.5776 4289303694
-0.6049574 0.046957333 1.5755 4289567377
-0.59440458 0.045080587 1.5758185 4289764244
-0.58511132 0.046087321 1.5758183 4289830548
-0.57456821 0.048341591 1.5755 4290618006
-0.56431532 0.048448984 1.5790001 4290486936
-0.55508691 0.048448984 1.5790001 4290356124
-0.5453971 0.048448984 1.5790001 4290618273
-0.53570729 0.047064725 1.5790001 4290815129
-0.52407962 0.047341578 1.5790001 4290617752
-0.51488268 0.046805609 1.5770003 4290682521
-0.50476128 0.047139741 1.575 4290682527
-0.49451891 0.04776641 1.5748 4290683797
-0.48587409 0.048448984 1.5790001 4290749335
-0.43050382 0.048448984 1.5790001 4291010977
-0.73453796 0.052092932 1.572 4288845965
-0.72764736 0.052368559 1.572 4289173644
-0.69732869 0.05099044 1.572 4289041800
-0.68768185 0.05099044 1.572 4289238925
-0.67390066 0.05099044 1.572 4289369740
-0.66405696 0.052171681 1.5719999 4289369236
-0.65598512 0.05099044 1.572 4289304206
-0.63393521 0.052368559 1.572 4289238919
-0.6256665 0.052368555 1.572 4289370251
-0.61464149 0.052368555 1.572 4289370767
-0.60538834 0.052959178 1.5719999 4289764495
-0.59534782 0.053402144 1.572 4290026648
-0.57467604 0.050990444 1.572 4290355346
-0.56565511 0.052425321 1.57375 4290355349
-0.55538237 0.052368555 1.572 4290421914
-0.54632616 0.052171681 1.5719999 4290552732
-0.533907 0.05378161 1.5730771 4290486167
-0.5255301 0.055170208 1.5734001 4290749083
-0.51587623 0.052827928 1.572 4290748572
-0.50485128 0.051909182 1.572 4290617502
-0.49474511 0.052092932 1.572 4290749339
-0.48435697 0.053306226 1.5725836 4290815130
-0.47571686 0.055837132 1.5745456 4290749594
-0.46532893 0.055226441 1.5750629 4290880671
-0.45527306 0.055291366 1.5732728 4290946207
-0.44467783 0.055089608 1.574154 4290814364
-0.43552426 0.055026989 1.5750002 4290814106
-0.42753324 0.055162638 1.5731667 4290879142
-0.47407329 0.062015399 1.572 4291011485
-0.4699389 0.062015399 1.572 4291077022
-0.44237652 0.062015399 1.572 4291011738
-0.43521029 0.062566653 1.572 4290814362
-0.4285953 0.062015399 1.572 4291141280
-0.41666126 0.081671141 1.5790001 4291340723
0.24943972 0.089577802 1.572 4287129438
0.25467652 0.08627031 1.5720001 4287194726
0.26621133 0.087721974 1.5783002 4286867043
0.2755194 0.086383075 1.576667 4287129454
0.28515691 0.087208159 1.5790002 4287262313
0.29415452 0.089284554 1.5790001 4287131498
0.30592072 0.089976691 1.5790001 4287000172
0.31607196 0.089976691 1.5790001 4285356383
0.32599244 0.089284554 1.5790001 4282264882
0.33536759 0.087459847 1.5790004 4285027663
0.34467989 0.087208159 1.5790002 4286605930
0.3542774 0.08610075 1.5790004 4287196779
0.36544374 0.087208159 1.5790004 4287392874
0.37527019 0.087504372 1.5781252 4287064167
0.38447931 0.088086687 1.5782225 4286998116
0.39422166 0.088525943 1.5778335 4287129187
0.40475664 0.087761864 1.5790002 4286801768
0.41472331 0.087761864 1.5790002 4286802018
0.42536229 0.087999173 1.5790002 4286933088
0.4336184 0.088246353 1.5790002 4286933342
0.44526923 0.089976691 1.5790001 4286867309
0.45597416 0.088869274 1.5790001 4286802796
0.46511027 0.088592418 1.5790002 4286539875
0.47480008 0.088592418 1.5790001 4286933350
0.48476666 0.089422978 1.5790001 4286934376
0.49556386 0.089976683 1.5790001 4286737772
0.50525367 0.089976691 1.5790001 4286475108
0.51632774 0.089976691 1.5790001 4286605417
0.52463329 0.089976691 1.5790001 4286671213
0.55577904 0.089284554 1.5790001 4286276712
0.56477672 0.088592418 1.5790002 4286145898
0.57446653 0.088592418 1.5790001 4285817450
0.58138782 0.089976683 1.5790001 4285686117
0.59523034 0.089976683 1.5790001 4286078061
0.60630441 0.088592425 1.5790001 4285818482
0.6136871 0.089053839 1.5790001 4285686887
0.62627727 0.088790171 1.5790002 4285358181
0.63537383 0.089976691 1.5790001 4285487713
0.64478672 0.089422978 1.5790001 4285553250
0.65512621 0.088733189 1.5780001 4283976535
0.6650365 0.088394664 1.5790002 4278255628
0.67274874 0.089976683 1.5790001 4279966238
0.70597088 0.089976683 1.5790001 4284767065
0.71427643 0.089976683 1.5790001 4284700250
0.72258198 0.089976683 1.5790001 4284699223
0.24943972 0.09233404 1.572 4286998874
0.25495219 0.093712159 1.572 4286802013
0.26434153 0.093632758 1.574 4287326577
0.27562401 0.093712159 1.572 4287326830
0.28584781 0.094361521 1.5730001 4287196783
0.2948983 0.095452979 1.5739093 4287131245
0.3045533 0.094979115 1.5748001 4287065453
0.31502905 0.095333189 1.5760835 4286341995
0.32538375 0.095491476 1.5745457 4282395964
0.33462647 0.094896883 1.5734001 4284565578
0.34452999 0.093712159 1.572 4286933357
0.35595077 0.093814947 1.57375 4287065196
0.36575115 0.094797142 1.572875 4287129186
0.37408298 0.09447778 1.572 4286932069
0.38477877 0.093780689 1.5731667 4286932580
0.39414233 0.093712159 1.572 4286801769
0.40570772 0.094877094 1.5726365 4286670183
0.41493288 0.094848536 1.57375 4286735465
0.42467707 0.094914466 1.5732728 4286801253
0.43523899 0.095489249 1.5741003 4286801755
0.44592908 0.095222421 1.5783639 4286867809
0.45550501 0.095568463 1.5758183 4286802792
0.46574801 0.094974086 1.5736156 4286933864
0.47563463 0.095537595 1.57375 4287065201
0.48450115 0.095239788 1.5745457 4286867823
0.49554202 0.095182806 1.5777274 4286671467
0.50513172 0.095659845 1.5769001 4286410080
0.51510131 0.095368475 1.5766668 4286605412
0.52425849 0.095274374 1.5751112 4286605414
0.5339064 0.095529966 1.575182 4286605667
0.54550993 0.095368475 1.5766668 4286276968
0.55518538 0.095368475 1.5766668 4286211429
0.56475753 0.095011756 1.5740002 4286408550
0.57467604 0.095090277 1.572 4286145895
0.58442253 0.094921082 1.5743334 4286014044
0.59514248 0.094354264 1.5751114 4286078822
0.60462219 0.09524446 1.574625 4285817709
0.61462051 0.095368475 1.5766668 4285620835
0.6256783 0.095368475 1.576667 4285488737
0.63535374 0.095368475 1.5766667 4285620066
0.64540613 0.09510161 1.5755002 4285685092
0.654607 0.093712159 1.572 4283977563
0.66425383 0.093712159 1.572 4278190083
0.67581969 0.095227331 1.5743334 4282661179
0.68469095 0.096117981 1.5760001 4284963677
0.69617945 0.096214779 1.5769002 4285027676
0.70560575 0.095491476 1.5745457 4284830297
0.71453863 0.094939224 1.5741001 4284437844
0.72423571 0.095786475 1.5770003 4284305750
0.73573244 0.097590096 1.5790001 4284304720
0.74492782 0.09709572 1.5790002 4283911240
0.75372773 0.097590096 1.5790001 4283977288
0.4065454 0.10060276 1.572 4286932574
0.43548593 0.10060276 1.572 4286670688
0.44552654 0.10257149 1.5719999 4286605418
0.45386085 0.1015215 1.572 4286868592
0.46167019 0.10060276 1.572 4286934121
0.47682953 0.10060276 1.572 4286868080
0.48490137 0.101784 1.5719999 4286802538
0.49474511 0.10198087 1.572 4286606175
0.50347316 0.1015215 1.572 4286540896
0.54711366 0.10060277 1.572 4286342502
0.55593359 0.10170525 1.572 4286079071
0.5650292 0.10060276 1.572 4286144344
0.57743227 0.10060276 1.572 4286473307
0.61739779 0.10060276 1.572 4285553764
0.62612587 0.10060277 1.572 4285619555
0.63393521 0.10060276 1.572 4285948260
0.64633828 0.10129182 1.572 4285751143
0.69457245 0.10060276 1.572 4284895321
0.70467871 0.1015215 1.572 4284502104
0.71469307 0.10170525 1.572 4284306263
0.72623003 0.10441476 1.5755001 4284108885
0.7348718 0.10435387 1.5766668 4284042316
0.74517953 0.10335562 1.575231 4284108619
0.75666487 0.1043584 1.5758183 4284044118
0.76574188 0.10504293 1.5766668 4284043600
0.77527928 0.10498194 1.5771337 4283912015
0.78486001 0.1061598 1.5764546 4283978064
0.79473019 0.10620386 1.5770912 4283977807
0.80406344 0.10607498 1.575182 4283846222
0.81493169 0.10737877 1.5790002 4284240212
0.82547837 0.1075106 1.5790002 4283780435
0.83461237 0.10598558 1.5783002 4283780680
0.84408313 0.10654736 1.5784169 4283715669
0.85131782 0.10658777 1.5790001 4283715407
0.76485658 0.11162772 1.572 4284239439
0.77496272 0.11162772 1.572 4283847251
0.7841503 0.11162772 1.572 4283912532
0.80620021 0.11162772 1.572 4283978579
0.81649852 0.11418816 1.5735556 4283912273
0.82483244 0.11287997 1.573 4283649867
0.83514071 0.11162772 1.572 4283649866
0.84547663 0.11231678 1.572 4283911759
-0.88456821 0.022524372 1.5860001 4287663245
-0.87455744 0.020855898 1.5860001 4287861122
-0.86343426 0.021551099 1.5860001 4287993231
-0.85509187 0.023636686 1.5860001 4288256654
-0.84535909 0.025027081 1.5860002 4288190346
-0.83403736 0.024828453 1.5860002 4288255625
-0.82505941 0.028085943 1.5860001 4288452234
-0.81801468 0.028271331 1.5860001 4288451727
-0.80364734 0.029198259 1.5860001 4288385415
-0.79590088 0.027211983 1.5860002 4288517506
-0.78418183 0.027807869 1.5860002 4288450693
-0.77444905 0.028503062 1.5860001 4288253064
-0.76332593 0.029198259 1.5860001 4288451978
-0.82311285 0.031979047 1.5860001 4288321168
-0.81477046 0.031979047 1.5860001 4288584087
-0.80642813 0.031979047 1.5860001 4288254861
-0.79947615 0.031979047 1.5860001 4288057987
-0.78362572 0.034203678 1.5860002 4288254092
-0.77444911 0.033369441 1.5860001 4288253836
-0.7652725 0.034203671 1.5860002 4288714131
-0.75637406 0.034759831 1.5860001 4288845200
-0.74497277 0.03531599 1.5860001 4288845195
-0.73690844 0.034759834 1.5860001 4288780171
-0.69797742 0.037540618 1.5860001 4289237898
-0.6868543 0.037540618 1.5860001 4289238414
-0.65348488 0.037540618 1.5860001 4289304720
-0.64421552 0.036613688 1.5860001 4289370256
-0.63540977 0.035455029 1.5860001 4289303699
-0.62892127 0.034759831 1.5860001 4289435020
-0.59369797 0.037540618 1.5860001 4290027412
-0.71141791 0.042175263 1.5860001 4289042567
-0.70492941 0.041248336 1.5860001 4289238152
-0.69519663 0.040321406 1.5860001 4289172616
-0.68546391 0.040321406 1.5860001 4289107598
-0.67573112 0.0417118 1.5860001 4289304973
-0.66877919 0.040321406 1.5860001 4289304972
-0.63262898 0.0417118 1.5860001 4289435789
-0.62614042 0.042793218 1.5860002 4289369739
-0.61455381 0.043102194 1.5860002 4289500814
-0.60482109 0.041711804 1.5860001 4289830297
-0.59647876 0.041248336 1.5860001 4289961617
-0.58479941 0.041433722 1.5860001 4289895320
-0.57574916 0.043354988 1.5860003 4290354838
-0.56469834 0.045485724 1.5860002 4290552984
-0.55436975 0.043896705 1.5860002 4290421656
-0.5458684 0.042824116 1.5860002 4290683542
-0.53530145 0.044492587 1.5860001 4290683548
-0.52640295 0.04365835 1.5860001 4290683549
-0.51583594 0.043102194 1.5860001 4290814616
-0.48524725 0.046809912 1.5860001 4290815391
-0.47505108 0.048663765 1.5860001 4290749336
-0.46717215 0.048663765 1.5860001 4290684056
-0.44353548 0.048663765 1.5860001 4291011485
-0.43658352 0.048663765 1.5860001 4291142297
-0.42963153 0.048663765 1.5860001 4290879391
-0.47551453 0.051444553 1.5860001 4290815131
-0.45326823 0.051444553 1.5860001 4290814364
0.25722277 0.079252422 1.5860001 4287326571
0.27529788 0.079252422 1.5860001 4287194984
0.28503063 0.079252422 1.5860001 4287195231
0.33647519 0.079252422 1.5860001 4286408547
0.34481752 0.079252422 1.5860001 4287327603
0.35455027 0.079252422 1.5860001 4286999911
0.36011186 0.079252422 1.5860001 4287527028
0.25444198 0.08203321 1.5860001 4287587689
0.26445282 0.083145522 1.5860001 4287195233
0.27390748 0.08203321 1.5860001 4287195235
0.28503063 0.08203321 1.5860001 4287195247
0.29476339 0.084813982 1.5860002 4287131253
0.30505231 0.086482458 1.5860001 4287196780
0.31339464 0.087038621 1.5860001 4287000171
0.32550654 0.085122973 1.5860002 4282396207
0.3343896 0.082728408 1.5860001 4284041290
0.34481755 0.08203321 1.5860001 4286999924
0.3573311 0.08203321 1.5860001 4287328368
0.36567342 0.08203321 1.5860001 4287526766
0.37262541 0.0834236 1.5860001 4287525484
0.38513893 0.08481399 1.5860001 4287063910
0.39579865 0.083887063 1.5860001 4287063392
0.40460443 0.083887063 1.5860001 4286998374
0.41517144 0.082589373 1.5860001 4286998884
0.42499688 0.083887063 1.5860001 4286998376
0.43797389 0.08481399 1.5860001 4286736217
0.44399893 0.086667843 1.5860001 4286605422
0.45465863 0.086667843 1.5860001 4286801766
0.46485484 0.083887063 1.5860001 4286473565
0.47491863 0.083622225 1.5860002 4286868072
0.48469108 0.085926302 1.5860001 4286933862
0.49414578 0.087038621 1.5860001 4286868586
0.50471276 0.087594777 1.5860001 4286803040
0.51472366 0.087038621 1.5860001 4286671716
0.52556866 0.087594777 1.5860001 4286737005
0.53391105 0.087594777 1.5860001 4286736750
0.5458684 0.087038621 1.5860001 4286475113
0.55532312 0.086482458 1.5860001 4286211438
0.56449968 0.08481399 1.5860001 4286146154
0.5756228 0.08481399 1.5860001 4286079333
0.58466041 0.086899579 1.5860001 4285882214
0.59508836 0.087594777 1.5860001 4286144367
0.60482109 0.086667843 1.5860001 4285882476
0.61409038 0.085740924 1.5860001 4285817191
0.62567699 0.086204387 1.5860001 4285816679
0.63596594 0.085926302 1.5860001 4285684574
0.64514256 0.085509196 1.5860002 4285552993
0.65418005 0.085509181 1.5860001 4285488743
0.664608 0.08481399 1.5860001 4278912786
0.67573112 0.086204387 1.5860001 4280689958
0.68268311 0.087594777 1.5860001 4285096796
0.71744299 0.087594777 1.5860001 4284569947
0.72439498 0.087594777 1.5860001 4284437849
0.30171534 0.090375565 1.5860001 4287658362
0.31561929 0.090375565 1.5860001 4287197824
0.44909704 0.090375565 1.5860001 4287130219
0.51305515 0.090375565 1.5860001 4286671719
0.53599668 0.091070764 1.5860001 4286670954
0.54503417 0.090375565 1.5860001 4286540139
0.55198616 0.090375565 1.5860001 4286408045
0.58813637 0.090375565 1.5860001 4285752164
0.59230757 0.090375565 1.5860001 4286275941
0.60343069 0.090375565 1.5860001 4286013550
0.67990232 0.090375565 1.5860001 4283846481
0.68615913 0.091070764 1.5860001 4284964447
0.69426972 0.092229426 1.5860001 4285094233
0.70353901 0.090375565 1.5860001 4285027939
0.72995651 0.093156353 1.5860001 4284372057
0.73551804 0.094546743 1.5860001 4284370517
0.74552888 0.093712509 1.5860001 4283977299
0.75498354 0.093156353 1.5860001 4283780428
0.76509553 0.095684335 1.5860003 4283978322
0.77444911 0.09593714 1.5860002 4284240473
0.78362566 0.096493296 1.5860002 4284109394
0.79576844 0.096555084 1.5860002 4283912528
0.80464041 0.096731648 1.5860002 4283715395
0.81338006 0.098717928 1.5860001 4283780933
0.82450324 0.098717928 1.5860001 4283912535
0.83423597 0.098717928 1.5860001 4283845969
0.84535921 0.098717928 1.5860001 4283650387
0.85370147 0.098717928 1.5860001 4283650386
0.78835303 0.10149872 1.5860001 4283716427
0.79530501 0.10149872 1.5860001 4283780688
0.80503774 0.10149872 1.5860001 4283518793
0.81560469 0.10205487 1.5860001 4283912273
0.82450324 0.10288911 1.5860001 4284043354
0.8334018 0.10205487 1.5860001 4283976530
0.84674954 0.10149872 1.5860001 4283715671
0.85370147 0.10149872 1.5860001 4283584339
-0.89294285 0.018166287 1.5940001 4287467145
-0.88455844 0.018166287 1.5940002 4287532167
-0.8747766 0.017234683 1.594 4287860363
-0.86443567 0.017048363 1.5940001 4288057483
-0.85451418 0.017467584 1.5940001 4288385930
-0.84612972 0.017467584 1.5940001 4288845705
-0.80211139 0.018166287 1.5940001 4288320903
-0.89014804 0.0209611 1.5940001 4287400836
-0.88455844 0.0209611 1.5940001 4287532175
-0.85521287 0.0209611 1.5940001 4288189582
-0.84543103 0.0209611 1.5940002 4288452745
-0.83481073 0.021520063 1.5940001 4288517515
-0.82419044 0.023196951 1.594 4288386186
-0.81412917 0.025712281 1.594 4288517007
-0.80546522 0.023196951 1.594 4288713608
-0.79512441 0.022079024 1.5940001 4288648848
-0.78534251 0.023057209 1.594 4288713357
-0.7750017 0.025991764 1.5940001 4288647566
-0.76577884 0.025852021 1.594 4288779655
-0.7587918 0.027948134 1.5940001 4288910219
-0.74481773 0.02934554 1.5940001 4289041802
-0.73922813 0.02934554 1.5940001 4289107594
-0.70289552 0.02934554 1.5940001 4289238161
-0.69451112 0.02934554 1.5940002 4289238418
-0.64364552 0.028227616 1.5940001 4289434771
-0.63477194 0.027598782 1.594 4289499791
-0.62464076 0.02934554 1.5940002 4289893000
-0.61485893 0.02934554 1.5940001 4290025614
-0.60647452 0.02934554 1.5940001 4289896594
-0.75360143 0.034136645 1.594 4288910986
-0.74342036 0.032140352 1.5940001 4289042064
-0.73443699 0.034136649 1.594 4288976779
-0.72525406 0.037729979 1.5940002 4289108110
-0.71500635 0.037729979 1.5940002 4289042311
-0.70485193 0.034376204 1.594 4289303691
-0.6948604 0.034585811 1.594 4289303952
-0.6850087 0.036612052 1.5940001 4289304210
-0.67494744 0.037729979 1.5940002 4289304461
-0.66423398 0.03633257 1.594 4288977031
-0.65468496 0.034236461 1.5940001 4289173392
-0.64644039 0.032699317 1.5940001 4289303955
-0.63395685 0.034469362 1.594 4289435022
-0.62464076 0.034935165 1.594 4289565833
-0.61485893 0.034935165 1.594 4289895568
-0.60507709 0.034935161 1.594 4290092948
-0.59529525 0.034236461 1.594 4290224021
-0.58551341 0.036332574 1.594 4290223512
-0.57573152 0.03633257 1.594 4290354577
-0.56539071 0.037171014 1.5940001 4290158481
-0.55337304 0.037729979 1.5940001 4290617755
-0.546386 0.037729979 1.5940002 4290618007
-0.5338093 0.037729979 1.5940001 4290618002
-0.52961713 0.037729979 1.5940001 4290684572
-0.51424569 0.037729979 1.5940001 4290880670
-0.50446385 0.037729979 1.5940002 4290946978
-0.72245926 0.040524792 1.5940001 4289174154
-0.71593803 0.040524792 1.5940002 4288977548
-0.68053705 0.040524792 1.5940001 4289370511
-0.67774224 0.040524792 1.5940001 4289370511
-0.6651656 0.041922197 1.5940001 4289239181
-0.62324333 0.040524792 1.5940001 4289434508
-0.61905116 0.040524792 1.5940001 4289631632
-0.57340258 0.041456398 1.5940002 4290354581
-0.56483173 0.041083757 1.5940001 4290617749
-0.55756527 0.040524792 1.5940001 4290880670
-0.5407964 0.040524792 1.5940001 4290551962
-0.53520674 0.040524792 1.5940002 4290683801
-0.5254249 0.040524792 1.5940001 4290488224
-0.51340723 0.041642718 1.5940001 4290814619
-0.50446379 0.044251207 1.5940002 4290748829
-0.49421617 0.044251215 1.594 4290683805
-0.48490009 0.045182813 1.5940002 4290749601
-0.47511828 0.045415718 1.594 4290881180
-0.46498704 0.045765068 1.594 4290617757
-0.45602036 0.047046024 1.594 4290749339
-0.44437534 0.04471701 1.594 4291010974
-0.43599087 0.046114419 1.5940001 4291075999
0.25516647 0.077975295 1.5940001 4287261039
0.26550725 0.078720577 1.594 4287457893
0.27528909 0.076857366 1.5940002 4287327081
0.28553677 0.077788971 1.594 4287129703
0.29415411 0.078953475 1.5940001 4287261809
0.30696365 0.078720577 1.5940002 4287130731
0.3144165 0.079652183 1.5940001 4286538848
0.32447782 0.079093218 1.5940001 4282725434
0.33491179 0.078720577 1.5940002 4284304457
0.34585816 0.076158658 1.5940001 4287459698
0.35434243 0.075659588 1.594 4287394154
0.36472312 0.078720577 1.5940002 4287527033
0.37403917 0.079652183 1.5940002 4287264368
0.39826089 0.079652183 1.5940001 4287062879
0.40245312 0.079652183 1.5940001 4287063131
0.41502976 0.079652183 1.5940001 4287064163
0.51564306 0.079652183 1.5940001 4287130219
0.55616784 0.079652183 1.5940001 4286410103
0.56315488 0.079652183 1.5940002 4286146154
0.57712895 0.079652183 1.5940001 4286276709
0.63302523 0.079652183 1.5940001 4285620072
0.64839673 0.079652183 1.5940001 4285487973
0.68333191 0.079652183 1.5940002 4285160295
0.26410985 0.082446992 1.5940001 4287327073
0.29764763 0.082446992 1.5940001 4287262069
0.30435514 0.08300595 1.5940001 4287261808
0.31497544 0.083564915 1.5940001 4286999659
0.32210225 0.083145693 1.5940001 4284040518
0.37729979 0.082446992 1.5940001 4287262825
0.38568425 0.082446992 1.5940001 4287129960
0.39406866 0.082446992 1.5940001 4286932327
0.40524793 0.082446992 1.5940001 4286998624
0.42527744 0.083378591 1.5940002 4286998629
0.43459347 0.083378591 1.5940002 4286735712
0.44521374 0.08300595 1.5940001 4286735975
0.45471612 0.084123887 1.5940001 4286670691
0.46533644 0.082446992 1.5940001 4286473307
0.49468195 0.083844401 1.5940001 4286802793
0.50446373 0.085241817 1.5940002 4286868580
0.51424569 0.083844401 1.594 4286803051
0.52482599 0.084044032 1.594 4286671465
0.53520674 0.085241817 1.5940002 4286670951
0.54438972 0.084842548 1.594 4286606187
0.55477047 0.083145693 1.5940001 4286409588
0.56455231 0.082446992 1.5940001 4286211434
0.57573152 0.082446992 1.5940001 4286145378
0.58551341 0.083378591 1.5940002 4286079075
0.59529525 0.085241809 1.5940001 4286079334
0.60507709 0.085241817 1.5940002 4285882478
0.61439312 0.083378591 1.5940002 4285751137
0.62464076 0.085241817 1.5940002 4285750631
0.6344226 0.082446992 1.5940001 4285816417
0.64420444 0.082446992 1.5940002 4285552993
0.65538377 0.082446992 1.5940002 4285487719
0.6651656 0.082446992 1.5940001 4280359729
0.67494744 0.082446992 1.5940002 4278190354
0.68577737 0.084193751 1.594 4284898140
0.69451112 0.086639203 1.594 4284701020
0.70429295 0.088036619 1.5940001 4284766812
0.71487331 0.086439587 1.594 4284504412
0.72525406 0.085241817 1.5940002 4284307543
0.73363853 0.087105013 1.5940002 4284110415
0.755997 0.088036619 1.5940002 4284239438
0.76158661 0.088036619 1.5940001 4284043091
0.78673995 0.088036619 1.5940001 4284043606
0.70149815 0.090831436 1.5940001 4285028441
0.73643333 0.090831436 1.5940002 4284175190
0.74481773 0.090831436 1.5940002 4284108886
0.75413388 0.090831436 1.5940002 4283977295
0.76577884 0.090831436 1.5940001 4283977554
0.77556068 0.090831436 1.5940002 4283978070
0.78618097 0.091390394 1.5940001 4284109655
0.79442567 0.092927545 1.5940001 4284109909
0.80444044 0.093626238 1.5940002 4283978317
0.81524706 0.094744183 1.5940001 4283912781
0.82431465 0.09611053 1.594 4283913048
0.83564919 0.095023654 1.594 4283781206
0.84473234 0.095722362 1.5940001 4283518283
0.85521293 0.096421063 1.5940001 4283585360
-0.83081788 -0.0014105566 1.6090001 4288385165
-0.90134573 0.0070527829 1.6090001 4287467148
-0.89711404 0.0098738968 1.6090001 4287401092
-0.88441902 0.0098738968 1.6090001 4287861132
-0.87434357 0.0086648483 1.6090001 4287664261
-0.86396599 0.0091686184 1.6090001 4288058249
-0.85535651 0.0081714103 1.6074002 4287861128
-0.84549534 0.0092703998 1.6025999 4287992458
-0.83350182 0.0067229625 1.6063334 4288255112
-0.82604074 0.0073250765 1.6074002 4288255120
-0.81812286 0.0098738968 1.6090001 4288386711
-0.90134573 0.01269501 1.6090001 4287466632
-0.89417505 0.014417878 1.6050001 4287795082
-0.88395166 0.014316143 1.6010001 4287795080
-0.87384605 0.013754725 1.6010001 4287861131
-0.86317921 0.014235939 1.601 4288123786
-0.85475791 0.013333661 1.6010001 4288189831
-0.84437168 0.014877561 1.6010001 4288386182
-0.83467925 0.015446693 1.6018 4288386701
-0.82560617 0.015222003 1.6029998 4288321168
-0.81580341 0.015191232 1.6049999 4288386447
-0.80569667 0.015470147 1.6045556 4288451721
-0.79537106 0.018300768 1.6058 4288452238
-0.78144836 0.018337237 1.6090001 4288582798
-0.7749598 0.01720879 1.609 4288583057
-0.76649648 0.01720879 1.609 4288518030
-0.75464779 0.018337237 1.6090001 4288714634
-0.63898218 0.01692668 1.6090001 4289106835
-0.62769771 0.018337237 1.6090001 4289633167
-0.82107282 0.022456694 1.6010001 4288320904
-0.7870906 0.021158351 1.6090001 4288582798
-0.77503663 0.021614568 1.6010001 4288779149
-0.7632041 0.022288248 1.6032857 4288845196
-0.75501364 0.025005979 1.6026 4289042317
-0.74508548 0.024955589 1.6060909 4288976520
-0.73630404 0.027348785 1.6045556 4289041811
-0.72646976 0.026507771 1.6068181 4288976269
-0.71442091 0.026152194 1.6042 4289041549
-0.70476842 0.02493264 1.6046363 4289107347
-0.69437563 0.025321638 1.6050001 4289238165
-0.68562311 0.026745008 1.6059228 4289238418
-0.67466909 0.026788302 1.6083332 4289239183
-0.66451865 0.026751481 1.6063335 4289304718
-0.65459657 0.024919247 1.603909 4289436044
-0.64634717 0.02348928 1.6032858 4289435792
-0.63394272 0.023049671 1.6034 4289500298
-0.6246767 0.023895301 1.6036668 4289828496
-0.61483556 0.023895303 1.6036668 4289895059
-0.60528988 0.025590777 1.6042 4290092439
-0.59545869 0.027574673 1.6049999 4289961366
-0.58532929 0.028137492 1.605 4290158491
-0.5751971 0.027856786 1.6050001 4290289304
-0.56563324 0.029621691 1.6090001 4290223513
-0.559991 0.029621691 1.6090001 4290419871
-0.54165375 0.029621691 1.6090001 4290421147
-0.53460097 0.029621691 1.6090001 4290748573
-0.5240218 0.028916411 1.6090001 4290617503
-0.51297241 0.028681317 1.6090001 4291077016
-0.50582564 0.029057467 1.609 4290880666
-0.44291478 0.027505854 1.6090001 4290880414
-0.43743768 0.027603017 1.6010002 4290814623
-0.73218173 0.033217192 1.6010002 4289042062
-0.72456151 0.034188733 1.6027777 4288976524
-0.71580708 0.03368504 1.6010001 4289107593
-0.69194686 0.032281496 1.6010001 4289238425
-0.6843276 0.03348453 1.601 4289106317
-0.67510432 0.03368504 1.601 4289239179
-0.6661216 0.033404328 1.6010001 4289239689
-0.65826184 0.032281496 1.6010001 4289238923
-0.59229529 0.032281496 1.6010001 4290224025
-0.58527756 0.032281496 1.6010002 4290223773
-0.57545274 0.032281496 1.6010001 4290289557
-0.56406748 0.034170814 1.6018889 4290092693
-0.55517656 0.033576708 1.6055715 4290158233
-0.54408795 0.034812529 1.6027778 4290552472
-0.53432572 0.033507574 1.6021429 4290617251
-0.52544981 0.035120845 1.6026001 4290618527
-0.51510042 0.03368504 1.601 4290815132
-0.50440168 0.033981878 1.6018 4290749853
-0.49527669 0.035172042 1.6050001 4290749601
-0.48575965 0.035195056 1.6060907 4290618018
-0.47465947 0.035387766 1.6031818 4290617246
-0.46630239 0.035988797 1.6055715 4290616990
-0.45559016 0.037334248 1.6010001 4290945181
-0.44506893 0.035207108 1.6066002 4291011483
-0.43829432 0.035874516 1.605 4291011236
-0.67229724 0.040702756 1.6010001 4289304970
-0.66949016 0.040702756 1.6010001 4289239177
-0.51510042 0.040702756 1.6010001 4291011742
-0.50480771 0.041638453 1.601 4290683550
-0.4963865 0.041638453 1.6010002 4290355102
-0.48502445 0.041905794 1.601 4290684063
-0.47439766 0.040702756 1.6010001 4290618017
-0.46457282 0.040702756 1.6010002 4290617246
-0.45534953 0.041905794 1.601 4290814619
-0.44492325 0.040702756 1.6010002 4291142047
-0.43790555 0.042106301 1.6010001 4291142565
0.25739646 0.066907831 1.6044285 4287326308
0.26533562 0.065697573 1.6082001 4287326825
0.27470589 0.066648804 1.6090001 4287393386
0.28507078 0.066826031 1.6082001 4287393638
0.29480633 0.066648796 1.6090001 4287392868
0.30496237 0.066860393 1.609 4287261543
0.31415108 0.067102194 1.6090001 4287064431
0.32462955 0.067908227 1.6090001 4282922043
0.33655882 0.068553053 1.609 4284500301
0.34502217 0.067988828 1.609 4287329395
0.35517815 0.068553053 1.609 4287197813
0.37943974 0.069117278 1.6090001 4287722612
0.38226086 0.069117278 1.6090001 4287985528
0.39636642 0.069117278 1.6090001 4287526262
0.40624034 0.069117278 1.6090001 4287459945
0.41470367 0.069117278 1.6090001 4287262056
0.42457756 0.069117278 1.6090001 4287063913
0.43304089 0.069117278 1.6090001 4286932840
0.44620609 0.069117278 1.6090001 4286998626
0.4556098 0.069117278 1.6090001 4287197029
0.4656404 0.067236535 1.6090001 4286999149
0.47676814 0.069117278 1.6090001 4286934373
0.48382092 0.069117278 1.6090001 4287130482
0.49550843 0.067102194 1.6090001 4286999659
0.50497931 0.067706719 1.6090001 4286933866
0.51428896 0.067988828 1.609 4286868587
0.52261126 0.068411998 1.6090001 4286671981
0.53460097 0.069117278 1.6090001 4286802803
0.559991 0.069117278 1.6090001 4286474604
0.56563324 0.069117278 1.6090001 4286474338
0.59948659 0.069117278 1.6090001 4285947244
0.66578275 0.069117278 1.6090001 4283715156
0.67471623 0.069117278 1.6090001 4278190083
0.68600076 0.069117278 1.6090001 4282661948
0.69540441 0.069117278 1.6090001 4284831314
0.25684842 0.072984248 1.601 4287195242
0.26578629 0.074081615 1.6019999 4287261541
0.27509448 0.072984248 1.601 4287262305
0.28491929 0.072984248 1.601 4287262564
0.29530552 0.073826373 1.6010001 4287130467
0.30440825 0.074081622 1.602 4287196009
0.31415436 0.074675493 1.6017272 4287065195
0.32518682 0.073979564 1.6023332 4282658868
0.33600557 0.074507028 1.6036668 4284171076
0.34467012 0.072783746 1.601 4287395190
0.35509646 0.071580708 1.6010002 4287394410
0.36568272 0.074195117 1.6036668 4287262834
0.37511674 0.074287333 1.6049999 4287460468
0.38488561 0.074774317 1.603909 4287395188
0.39461976 0.074250162 1.6042001 4287328623
0.40438664 0.074740529 1.6031818 4286998879
0.41520044 0.07450702 1.6036667 4287064165
0.42492735 0.074568391 1.605 4287064170
0.43466711 0.074630924 1.6063333 4286933095
0.44551432 0.074397832 1.6068181 4287063908
0.45526505 0.07488732 1.6058 4287130211
0.4654476 0.074432909 1.6075455 4287064944
0.47497362 0.074887313 1.6058 4286803302
0.48536298 0.074630924 1.6063333 4286802796
0.49467194 0.074548326 1.6045556 4286868588
0.50483608 0.074526444 1.604077 4286934129
0.51501805 0.074507028 1.6036667 4286868842
0.52529627 0.074568972 1.605 4286671723
0.53464556 0.07424628 1.6067144 4286737263
0.54450709 0.07482525 1.6061428 4286473827
0.5554961 0.074324504 1.6058 4286343272
0.56384164 0.074642986 1.601 4286277221
0.575872 0.074619241 1.6060909 4286409059
0.58534652 0.074630924 1.6063334 4286276708
0.5954513 0.074663065 1.6069999 4286079072
0.60506159 0.074630924 1.6063334 4285881445
0.61455154 0.07439784 1.6068183 4285881960
0.62435877 0.076105773 1.6076666 4286078310
0.63417548 0.075321048 1.6046364 4285816423
0.64502656 0.07488732 1.6058 4285619558
0.65520358 0.074759506 1.6090001 4285422437
0.66463214 0.075070135 1.6056666 4283187010
0.67519802 0.074364044 1.606091 4278386960
0.68538475 0.074585445 1.6053637 4283252806
0.69473207 0.074532263 1.6042 4284896859
0.7050705 0.074361667 1.6066 4285093470
0.71515226 0.076170065 1.6090001 4285027674
0.72518283 0.075699881 1.6090001 4284699480
0.73546427 0.076452173 1.609 4284504145
0.7518267 0.077580616 1.6090001 4284504407
0.30316535 0.080001973 1.6010001 4287262323
0.31579724 0.080001973 1.6010001 4287328627
0.37755316 0.080001973 1.6010001 4287198065
0.38597441 0.080001973 1.6010002 4287328115
0.39439568 0.080001973 1.6010002 4286997858
0.40843111 0.080001973 1.6010001 4287260763
0.41498098 0.080001973 1.6010002 4287129703
0.42527363 0.080001973 1.6010002 4287325799
0.43594056 0.080563389 1.6010001 4287063144
0.44492325 0.080001973 1.6010002 4287195242
0.45568371 0.080937669 1.601 4286803043
0.46457282 0.080001973 1.6010002 4286869101
0.47439766 0.080001973 1.6010001 4286869352
0.48622751 0.08120501 1.601 4286933869
0.49615258 0.080703743 1.6010001 4287065710
0.50527555 0.081405513 1.601 4286868586
0.51322907 0.080937661 1.6010002 4287065456
0.52492523 0.080001973 1.6010001 4286934636
0.53474998 0.081405513 1.601 4286540135
0.54363912 0.080937669 1.601 4286540136
0.5525282 0.080937661 1.6010002 4286540910
0.57404923 0.080001973 1.6010002 4286276967
0.58527756 0.080001973 1.6010002 4286145124
0.59510237 0.081405513 1.601 4286144349
0.60492712 0.081405513 1.601 4286078824
0.61475194 0.080937669 1.601 4286013028
0.62457681 0.081405513 1.601 4285947750
0.63206238 0.080937661 1.6010002 4285751400
0.64422637 0.080001973 1.6010002 4285552996
0.65685833 0.080001973 1.6010001 4285422178
0.66527951 0.080001973 1.6010001 4281937463
0.67510432 0.080001973 1.6010002 4278517776
0.68071854 0.080001973 1.6010001 4278911500
0.69531536 0.081124805 1.6010001 4285224544
0.70496154 0.082553864 1.601 4284962142
0.71400255 0.082007036 1.601 4284765533
0.72422832 0.081405513 1.601 4284504150
0.73452097 0.082809053 1.601 4284241239
0.74552244 0.084105149 1.6067142 4284174678
0.75440913 0.084182061 1.605 4284371535
0.76422137 0.083375208 1.6066 4284371794
0.77433568 0.086061977 1.6046363 4284175447
0.78372157 0.086177431 1.605 4284044631
0.79497975 0.086530067 1.605 4283912532
0.80554563 0.087403543 1.6044285 4284043606
0.81614816 0.085197628 1.609 4283912278
0.82545775 0.085479729 1.609 4284043347
0.83515048 0.085420832 1.6079332 4284043354
0.84441477 0.084168367 1.6075455 4283780950
0.85395098 0.088300847 1.609 4283715151
0.79861617 0.091230318 1.6010001 4284175446
0.80516601 0.09123031 1.6010002 4284109396
0.81545871 0.09123031 1.6010002 4284109905
0.82528347 0.091230318 1.6010001 4284109142
0.8344065 0.091932088 1.6010001 4283913054
0.84577513 0.091791734 1.6010001 4283583820
0.85590208 0.093096919 1.6042 4283452745
0.86351299 0.092626676 1.6058 4283912525
-0.90432256 -0.0023611553 1.6160001 4287598219
-0.89535022 -0.0014166933 1.6160001 4287467146
-0.84222418 -0.0028333867 1.6160001 4288385158
-0.83443236 -0.0014166933 1.6160001 4288254348
-0.82734889 -0.0014166933 1.6160001 4287992715
-0.90314198 0.0035417331 1.6160001 4287532427
-0.89535004 0.005059619 1.6159998 4287663502
-0.88578749 0.0038959065 1.6160001 4287795336
-0.87598872 0.0039352588 1.6160001 4287729804
-0.86559963 0.0037778486 1.6160001 4287926411
-0.85568279 0.0035417331 1.6160001 4288124043
-0.84473568 0.0039924993 1.6159999 4288057987
-0.83726573 0.0014166933 1.6160001 4288516492
-0.8242321 0.0039667413 1.6159999 4288058251
-0.8150034 0.0078930054 1.6160001 4288255633
-0.80496514 0.009350176 1.6159999 4288648844
-0.794765 0.0087834988 1.6159999 4288451212
-0.78484815 0.0089723915 1.6160001 4288583562
-0.77422291 0.0092085069 1.6160001 4288713614
-0.76926446 0.0085001597 1.6160001 4288779407
-0.80326509 0.013883593 1.6159999 4288648841
-0.79436022 0.014774087 1.6160001 4288452492
-0.78591067 0.014521106 1.6160001 4288452747
-0.77493125 0.013458587 1.6160001 4288518544
-0.76406997 0.016055858 1.6160001 4288583570
-0.75509757 0.017472552 1.6160001 4288845961
-0.74376404 0.018417014 1.6160001 4288911243
-0.73243046 0.018417014 1.6160001 4288976009
-0.7055133 0.018417014 1.6160001 4289237907
-0.6955964 0.018417014 1.6160001 4289172365
-0.68992966 0.018417014 1.6160001 4289302671
-0.66159576 0.018417014 1.6160001 4289370765
-0.65167892 0.018417014 1.6160001 4289173134
-0.64601219 0.017000321 1.6160001 4289107088
-0.63528579 0.016797936 1.6160001 4289698191
-0.62476176 0.018417014 1.6160001 4289501846
-0.61342824 0.018417014 1.6160001 4289763740
-0.58226097 0.018417014 1.6160001 4290025617
-0.443425 0.018417014 1.6160001 4290813342
-0.74470848 0.021250403 1.6160001 4288780171
-0.73526382 0.021250403 1.6160001 4288844936
-0.72676373 0.023139322 1.6160001 4289041804
-0.71543014 0.021250401 1.6160001 4288976014
-0.70267987 0.021250401 1.6160001 4289238675
-0.69559646 0.021250401 1.6160001 4289303698
-0.68567955 0.021250401 1.6160001 4289501838
-0.67434603 0.021250401 1.6160001 4289304722
-0.66584587 0.021250401 1.6160001 4289370009
-0.60421968 0.021958748 1.6160001 4289961111
-0.5940668 0.022667095 1.6160001 4289895575
-0.58603877 0.023139322 1.6160001 4290026644
-0.57187182 0.025028249 1.6160001 4290223512
-0.56526065 0.026917173 1.6160001 4290288540
-0.55534381 0.029750559 1.6160001 4290289302
-0.54471862 0.026917174 1.6160001 4290289042
-0.53503782 0.025972711 1.6160001 4290616730
-0.52417654 0.026917173 1.6160001 4290617246
-0.51709306 0.026917174 1.6160001 4290682772
-0.50349277 0.027483851 1.6159999 4290749853
-0.49442598 0.028333867 1.6160001 4290881180
-0.48309243 0.029750561 1.6160001 4290816674
-0.47459227 0.029750559 1.6160001 4290618270
-0.46467543 0.029750559 1.6160001 4290748833
-0.45475855 0.029750559 1.6160001 4290946200
-0.44696674 0.02550048 1.6160001 4290945950
-0.4638254 0.033150628 1.6159999 4290813347
-0.45532528 0.033717301 1.6159999 4291011482
0.25783819 0.062334508 1.6160001 4287588451
0.26492167 0.060917813 1.6160001 4287524198
0.27483854 0.061862275 1.6160001 4287524200
0.28475535 0.062051166 1.6159999 4287392868
0.29495555 0.061484493 1.6159999 4287523687
0.30458906 0.062051166 1.6159999 4287457901
0.31545037 0.061862275 1.6160001 4287130224
0.32489502 0.063278973 1.6160001 4282528050
0.33433962 0.06445954 1.6160001 4282856769
0.34472871 0.063278966 1.6160001 4287132273
0.35559002 0.064884558 1.6159999 4287197045
0.36503467 0.068473518 1.6160001 4287000939
0.3754237 0.068001278 1.6160001 4287328869
0.3859477 0.066989355 1.6160001 4287460975
0.39525741 0.067717947 1.6159999 4287526773
0.40578145 0.066179819 1.6160001 4287591277
0.41509113 0.065167889 1.6160001 4287394923
0.42516544 0.064695664 1.6160001 4287196011
0.43492484 0.067717947 1.6159999 4286932837
0.44436944 0.067529052 1.6160001 4286801760
0.4554669 0.065876238 1.6160001 4287064677
0.4638254 0.063751206 1.6159999 4287064428
0.47506449 0.065640129 1.6160001 4286999915
0.48545361 0.066584587 1.6160001 4287196530
0.49371761 0.065876238 1.6160001 4287064947
0.50632614 0.062617853 1.6159999 4287131245
0.51547396 0.063346431 1.6160001 4286933874
0.52559322 0.065167889 1.6160001 4286605162
0.53598231 0.068001285 1.6160001 4286737006
0.54471856 0.068709634 1.6160001 4286736747
0.55534381 0.069417976 1.6160001 4286475363
0.57659417 0.069417976 1.6160001 4286343531
0.58509439 0.068001278 1.6160001 4285883499
0.59521359 0.068203673 1.6160001 4285882211
0.60549468 0.067717947 1.6159999 4285947499
0.61423773 0.068203673 1.6160001 4285881444
0.62381727 0.06847351 1.6160001 4285750627
0.63562304 0.06847351 1.6160001 4285620319
0.64459544 0.068284623 1.6159999 4285226851
0.65120667 0.06847351 1.6160001 4285291368
0.66442919 0.067151263 1.6159999 4285357410
0.6749531 0.066179819 1.6160001 4278781965
0.68520731 0.066584587 1.6160001 4280951326
0.69559646 0.067292936 1.6160001 4284568663
0.70551324 0.068001285 1.6160001 4284831322
0.71472174 0.068709634 1.6160001 4284962398
0.72534698 0.069417976 1.6160001 4284699479
0.73526382 0.069417976 1.6160001 4284306767
0.75509757 0.069417976 1.6160001 4285027421
0.62617844 0.072251357 1.6160001 4286013287
0.63326192 0.072251357 1.6160001 4285750622
0.65734571 0.072251357 1.6160001 4285291112
0.71684682 0.072251357 1.6160001 4284962396
0.7239303 0.072251357 1.6160001 4284699726
0.73526382 0.072959706 1.6160001 4284306766
0.74628252 0.075084746 1.6160001 4284569174
0.75509751 0.074730575 1.6160001 4284503899
0.76462799 0.075342327 1.6159999 4284504154
0.77493125 0.076501444 1.6160001 4284438617
0.78424102 0.076703832 1.6160001 4284044889
0.81459874 0.077918135 1.6160001 4283780426
0.82536554 0.077351466 1.6159999 4283779918
0.83372402 0.077209793 1.6160001 4283911248
0.84434921 0.077918135 1.6160001 4283714645
0.85521054 0.077918135 1.6160001 4283648846
0.86418295 0.077918135 1.6160001 4283451474
0.77493125 0.080751516 1.6160001 4284438105
0.78569812 0.081318185 1.6159999 4284241239
0.79405659 0.082168207 1.6160001 4284043861
0.8055318 0.083018228 1.6159999 4283977810
0.813182 0.082168207 1.6160001 4283846224
0.82451552 0.080751516 1.6160001 4284173138
0.83443236 0.080751516 1.6160001 4284043356
0.84009916 0.080751516 1.6160001 4283846232
0.85745364 0.083230734 1.6160001 4283583308
0.86559963 0.085001603 1.6159999 4283517264
0.87126637 0.086418293 1.6160001 4283714896
-0.90508914 -0.0073773903 1.6240004 4287467663
-0.89551151 -0.0061693955 1.6240003 4287730308
-0.8864947 -0.0023728444 1.6240002 4287729797
-0.8755796 -0.0014237066 1.6240001 4287730057
-0.86622387 -0.0026440264 1.6240003 4287795085
-0.85564774 -0.0014237066 1.6240001 4288320393
-0.84663087 -0.0052202581 1.6240002 4288254083
-0.83097011 -0.0052202581 1.6240001 4287796106
-0.82503808 -0.0021355599 1.6240001 4287730816
-0.81293654 -0.0014237066 1.6240001 4288058496
-0.80154687 -0.0014237066 1.6240001 4288518284
-0.79229277 -0.0021355599 1.6240001 4288583309
-0.78446239 -0.0014237066 1.6240001 4288780424
-0.77592015 -0.0021355599 1.6240001 4288779404
-0.87415588 0.0014237066 1.6240001 4287993223
-0.86134255 0.0014237066 1.6240001 4288189839
-0.82147872 0.0014237066 1.6240001 4288058239
-0.81420201 0.0033219822 1.6240003 4288255624
-0.8047502 0.0039151935 1.6240003 4288517770
-0.79471308 0.0037016373 1.6240003 4288583314
-0.78410643 0.0039151935 1.6240003 4288714376
-0.77556419 0.0042711203 1.6240003 4288648082
-0.76168305 0.0099659469 1.6240001 4288910473
-0.75883567 0.0099659469 1.6240001 4288976522
-0.74459857 0.0099659469 1.6240001 4289304968
-0.70283651 0.0090168091 1.6240001 4289173131
-0.69619256 0.0099659469 1.6240001 4289173127
-0.64493912 0.0099659469 1.6240001 4289434508
-0.63924432 0.0099659469 1.6240001 4289697416
-0.77022529 0.012813359 1.6240001 4288518288
-0.76453048 0.012813359 1.6240001 4288714382
-0.75440639 0.014711637 1.6240003 4288911238
-0.74459863 0.015304847 1.6240003 4289107851
-0.73450321 0.015401916 1.6240004 4288779142
-0.72395492 0.017796334 1.6240001 4288976011
-0.71541262 0.015660774 1.6240003 4288976015
-0.70416534 0.014521807 1.6240002 4289172626
-0.69429433 0.014711637 1.6240003 4289238157
-0.68515885 0.016016701 1.6240003 4289303950
-0.67544711 0.017287869 1.6240003 4289304973
-0.66487098 0.016135342 1.6240002 4289501582
-0.6559729 0.014592993 1.6240003 4289566607
-0.64493912 0.012813359 1.6240001 4289566094
-0.63411891 0.013382843 1.6240002 4289631889
-0.62571907 0.017084479 1.6240001 4289501591
-0.6136176 0.01755905 1.6240001 4289895584
-0.6043635 0.017796334 1.6240001 4289764504
-0.5951094 0.017084481 1.6240003 4289961116
-0.58514339 0.016135342 1.6240002 4290026647
-0.5757876 0.017287867 1.6240003 4289895315
-0.56805897 0.018508187 1.6240001 4290420123
-0.54385591 0.018508187 1.6240001 4290026644
-0.53673744 0.018508187 1.6240001 4290157982
-0.45131502 0.018508187 1.6240001 4290681764
-0.4470439 0.015660774 1.6240001 4290747804
-0.60222793 0.021355599 1.6240001 4289830051
-0.59083825 0.021355599 1.6240001 4290092437
-0.58324516 0.022304738 1.6240001 4290156949
-0.57517749 0.022304738 1.6240002 4290157717
-0.56480473 0.023389468 1.6240003 4290289052
-0.55524558 0.024203012 1.6240004 4290223256
-0.54599148 0.022067454 1.6240001 4290419867
-0.53445947 0.021925082 1.6240002 4290419615
-0.52534771 0.022779308 1.6240002 4290683040
-0.51623601 0.023064051 1.6240002 4290683805
-0.50484639 0.023064051 1.6240002 4290486938
-0.49459568 0.025911462 1.6240002 4290684317
-0.48548397 0.025626721 1.6240002 4290749338
-0.47475144 0.025736239 1.6240004 4290683034
-0.46595886 0.025830105 1.6240003 4290748313
-0.45574433 0.02546853 1.6240003 4290814108
-0.44846758 0.021355599 1.6240001 4290682278
0.26623315 0.057660118 1.6240001 4287655526
0.27524996 0.056473698 1.6240002 4287459181
0.28413114 0.057151649 1.6240003 4287393382
