# .PCD v0.7 - Point Cloud Data file format
VERSION 0.7
FIELDS x y z rgb
SIZE 4 4 4 4
TYPE F F F U
COUNT 1 1 1 1
WIDTH 1052
HEIGHT 1
VIEWPOINT 0 0 0 1 0 0 0
POINTS 1052
DATA ascii
0.075205222 -0.1410494 0.60714287 4288464639
0.084007815 -0.1412212 0.60879999 4286294775
0.097541437 -0.14071552 0.60800004 4285241312
0.10304077 -0.14105374 0.60900003 4288977335
-0.18235068 -0.13275817 0.60788238 4280902056
-0.17470431 -0.1330713 0.6049999 4283403735
-0.16519755 -0.13301118 0.60455817 4285183230
-0.15446043 -0.13331498 0.60431421 4285184511
-0.14699218 -0.13361871 0.6045 4285119743
-0.13285522 -0.13484919 0.60587507 4286102271
-0.1250423 -0.13440959 0.60309088 4285249279
-0.11451153 -0.13468674 0.60247618 4285317119
-0.10490889 -0.13495146 0.6033541 4285120255
-0.095411889 -0.13489905 0.6027323 4285185791
-0.084096499 -0.13557184 0.60267651 4285645055
-0.076115966 -0.13486928 0.60310709 4286104319
-0.064665169 -0.13594843 0.60351527 4286497791
-0.054233927 -0.13645801 0.60470009 4286498815
-0.044446554 -0.13611673 0.60327286 4286695167
-0.035502691 -0.13610895 0.60289371 4286235903
-0.024699518 -0.13525 0.60337305 4285644799
-0.015565053 -0.13615108 0.60313523 4286234879
-0.0048310687 -0.13713752 0.60396558 4286366207
0.0057623303 -0.1371682 0.60542864 4286168831
0.015253068 -0.13644205 0.60293758 4286102783
0.024554282 -0.13704349 0.60394305 4286036735
0.035624288 -0.13713458 0.60382515 4285183487
0.044843923 -0.13719957 0.60256416 4285051135
0.054869935 -0.13750447 0.60253131 4284984831
0.065125145 -0.13661964 0.6037845 4285049854
0.074111745 -0.13766845 0.60232151 4286166268
0.082392924 -0.13794729 0.60033333 4285769461
0.097143307 -0.13490058 0.60237503 4283391874
0.10277174 -0.13521779 0.60602707 4287660173
-0.18115966 -0.12803365 0.60600001 4280638877
-0.17677385 -0.12562069 0.60211116 4280835489
-0.16378173 -0.12856555 0.60036361 4285443059
-0.15516999 -0.129922 0.60000002 4284920831
-0.10055951 -0.12979342 0.60266668 4284857599
-0.099413998 -0.129922 0.60000002 4284857343
-0.079425998 -0.129922 0.60000002 4285710591
0.09614531 -0.12500204 0.60241312 4283124832
0.10181361 -0.12811431 0.6074 4286542719
-0.17377801 -0.11540385 0.60491437 4280636822
-0.16938429 -0.11145882 0.6006667 4280767381
0.088965192 -0.11389346 0.60149997 4283386716
0.093097545 -0.1156633 0.60477275 4283386717
-0.17123953 -0.10687303 0.60792315 4281160848
-0.16602786 -0.10445819 0.60331392 4280964240
-0.158852 -0.100466 0.60000002 4280309145
0.087423638 -0.10459578 0.60435718 4282533717
0.091565944 -0.10599431 0.60829419 4282664790
-0.16320497 -0.095846631 0.60586667 4281226642
-0.15787035 -0.094604731 0.60133338 4280702098
0.078595862 -0.091820851 0.60169232 4281876562
0.084501661 -0.095211059 0.60556871 4282467413
0.090227403 -0.098769642 0.60900003 4282795356
-0.16096886 -0.0887549 0.60866666 4280964504
-0.15516631 -0.085137613 0.60337037 4281160848
-0.14991 -0.081529997 0.60000002 4281357968
0.076768018 -0.084917761 0.60280448 4282007376
0.082420178 -0.085394144 0.60789663 4282336081
-0.15253329 -0.076267846 0.60457569 4281358222
-0.14739411 -0.073620416 0.60105556 4282671503
0.069431998 -0.072237335 0.59999996 4281678919
0.073902868 -0.075286217 0.60301965 4282006865
0.080617391 -0.079549611 0.60900003 4282335319
-0.15037091 -0.068251789 0.60825002 4282341767
-0.14509214 -0.065379344 0.60377789 4283064204
0.066899396 -0.064367674 0.60246348 4281941066
0.072160773 -0.066031553 0.60708338 4282925649
-0.14161585 -0.054944251 0.60668421 4285099659
-0.13704705 -0.053639978 0.60271055 4284113539
0.064934738 -0.055321641 0.60267937 4284699219
-0.14059937 -0.048996463 0.60750008 4286807962
-0.13449298 -0.047351547 0.6029678 4286018444
-0.127818 -0.040502001 0.60000002 4287201949
0.054353155 -0.040946472 0.60659999 4285289816
0.060490001 -0.049970001 0.60000002 4285289816
-0.1235493 -0.034816802 0.60367513 4287596701
-0.11916861 -0.032177173 0.60177779 4287596705
0.047261607 -0.033821244 0.6020304 4285158225
0.052961953 -0.035229478 0.60712498 4285355091
-0.12151882 -0.028011363 0.60862505 4288056738
-0.11702821 -0.024250733 0.60426092 4288188325
0.038534842 -0.021875303 0.6006363 4285158216
0.044413652 -0.025091862 0.60424149 4285223759
0.051047713 -0.028991953 0.60866666 4285289556
-0.1126148 -0.015805393 0.60290909 4288254116
-0.10779078 -0.012686316 0.60100001 4288319909
0.036758106 -0.014529172 0.60236013 4284435014
0.042707298 -0.017386345 0.60722232 4285289294
-0.11069143 -0.0082682818 0.6085 4288319910
-0.10526425 -0.0048933886 0.60385412 4288386215
0.028942054 -0.0026304382 0.60024995 4285092174
0.033731673 -0.0051791975 0.60375482 4284368961
-0.10175877 0.0036551519 0.60612506 4288648103
-0.09723267 0.0055947616 0.60174292 4288713380
0.026729248 0.0055029285 0.60210532 4285026894
0.031865038 0.0037758797 0.60708708 4284434753
-0.093999244 0.014214822 0.60400003 4288779173
-0.088849291 0.017680988 0.60071427 4288714148
0.019079443 0.017764444 0.600375 4284829513
0.024383448 0.014273465 0.6053704 4284960844
-0.091201276 0.022935683 0.60837501 4288910245
-0.086229704 0.025256624 0.60325009 4288844966
0.0099940002 0.029982001 0.60000002 4284501065
0.016293451 0.025844732 0.60410422 4284632131
0.021949103 0.022482118 0.60816669 4285025605
-0.082804978 0.033723019 0.60558075 4288976034
-0.078161001 0.036812004 0.60223997 4289041314
0.0080432529 0.03718365 0.60156256 4283975229
0.013202421 0.033963494 0.60506117 4283975231
-0.08088506 0.041064527 0.60833335 4289041824
-0.074831791 0.04509262 0.60456383 4289041312
-0.06960734 0.047164664 0.60000002 4288844954
0.005816428 0.045817524 0.60445839 4284632137
0.010815674 0.042728417 0.60854548 4284501319
-0.071968205 0.051923215 0.60614288 4288974753
-0.066858739 0.055775907 0.60196877 4288843933
-0.0017705477 0.056885544 0.60081822 4284697929
0.0037999353 0.054576125 0.60564929 4284632136
-0.063573688 0.064014696 0.60538888 4288712605
-0.058333617 0.067820616 0.60124999 4288712085
-0.0038097948 0.065543875 0.60226429 4284369736
0.0023105175 0.063436471 0.60757148 4284172103
-0.060586434 0.071246706 0.60800004 4289040282
-0.054537874 0.07512065 0.60364276 4288646040
-0.048938382 0.078670092 0.60025001 4288449172
-0.011538358 0.077284962 0.60175002 4284304200
-0.006440348 0.074097127 0.60573816 4284106566
-0.051639229 0.08351782 0.60723537 4288514962
-0.045906682 0.085848257 0.60284907 4288382606
-0.039450001 0.089946002 0.60000002 4287725189
-0.02104 0.089946002 0.60000002 4285026383
-0.014413213 0.085426316 0.60336673 4284501067
-0.0081968885 0.082976669 0.60818762 4284041280
-0.043317679 0.093215354 0.60452771 4288118921
-0.037459638 0.096528053 0.6012333 4287198839
-0.023894645 0.095839024 0.60167307 4284830287
-0.017222723 0.094234243 0.60584617 4284566859
-0.040041748 0.10090521 0.60900003 4287593348
-0.03375677 0.10440721 0.60418975 4285816929
-0.026031934 0.10439352 0.60566002 4284895823
-0.019753929 0.10090521 0.60900003 4284632404
-0.032007542 0.11179672 0.6085 4285094746
-0.02809342 0.11164708 0.60881823 4285093201
0.036126554 0.17992093 0.60900003 4289237900
0.076559827 0.17992093 0.60900003 4288777097
0.086490184 0.17992093 0.60900003 4288710789
0.09022741 0.17992093 0.60900003 4288513406
0.10568775 0.179884 0.60887504 4288973194
0.11558849 0.17895803 0.60866678 4288646024
0.12368451 0.17980228 0.60900003 4288447613
0.1357515 0.17931326 0.60875005 4288513667
0.14529298 0.17866369 0.60835707 4288250495
0.15470645 0.17841239 0.60832268 4288250750
0.16490103 0.17860696 0.60803574 4288382597
0.17503162 0.17857134 0.60758066 4288185732
0.18504336 0.17840399 0.60761547 4288316289
0.19508655 0.17850301 0.6063714 4288448134
0.20497197 0.17829303 0.60778135 4288119941
0.21514386 0.17754738 0.60780847 4288054146
0.2247521 0.1784679 0.60641509 4287724924
0.23492543 0.1777481 0.60703504 4288186506
0.24520884 0.17814246 0.60691285 4287989126
0.25462419 0.177303 0.6066364 4287660416
0.26517677 0.17811069 0.60624444 4287397502
0.27441263 0.178009 0.60665727 4287530117
0.28506815 0.17852251 0.60705137 4287201150
0.2952503 0.17811431 0.60733336 4287068534
0.30517173 0.17800727 0.6059671 4286740339
0.3118647 0.176642 0.60833335 4286805368
-0.18098871 0.18953095 0.60900003 4290753979
-0.17419186 0.18924786 0.60829419 4290557368
-0.16531454 0.18914831 0.60817653 4290622391
-0.15461308 0.18880235 0.60754842 4290819765
-0.14494307 0.18790895 0.60769767 4290753459
-0.1351814 0.18789126 0.60707486 4290819509
-0.12480482 0.1887387 0.60775864 4290884790
-0.11481889 0.18763763 0.60659677 4291015605
-0.10512662 0.18803835 0.6061666 4291015860
-0.095022812 0.187315 0.60593939 4291081655
-0.085035518 0.18757202 0.60500002 4291146420
-0.075106129 0.18760934 0.60597062 4291146675
-0.065399118 0.1876414 0.60507363 4291146676
-0.054897461 0.18802765 0.60509425 4291146164
-0.045360241 0.18760023 0.60596079 4291145649
-0.034638971 0.1870805 0.60578501 4290816938
-0.024885274 0.18677358 0.60500002 4290421923
-0.015088362 0.18626437 0.60475999 4290158490
-0.0049194638 0.18594205 0.60455585 4290223771
0.0051537962 0.18646717 0.60462338 4289763480
0.01473052 0.1857482 0.60423779 4289500562
0.025076797 0.18523496 0.60473764 4289434771
0.035048626 0.18482092 0.60482657 4289369233
0.044982478 0.18502077 0.60415751 4289237902
0.055017669 0.18494418 0.60476488 4289171851
0.065117635 0.18515782 0.60400021 4289040014
0.075160563 0.18415098 0.60451734 4288909194
0.085025229 0.18411253 0.60402244 4288711558
0.094930567 0.18383618 0.6047765 4288711043
0.1049673 0.18370117 0.60425925 4288776581
0.11501231 0.18311021 0.60371041 4288579716
0.12520497 0.18324795 0.60368854 4288448387
0.13486917 0.18267575 0.60338008 4288448130
0.14521289 0.18269268 0.60338837 4288382338
0.15481171 0.18241195 0.60330653 4288316544
0.1651739 0.18237108 0.60380781 4288185215
0.17505401 0.1822578 0.60291672 4288119937
0.18467785 0.18181433 0.60248309 4288448905
0.1948761 0.18183988 0.6021632 4288382857
0.20527874 0.1815569 0.60226011 4287988868
0.21484096 0.18098731 0.60236865 4287987842
0.22575761 0.18157838 0.60078794 4288054913
0.23501618 0.18137984 0.6014055 4288252557
0.2449322 0.18148541 0.60118932 4287857796
0.25499529 0.18183118 0.60206133 4287397246
0.26500577 0.18159659 0.60217512 4287595138
0.27520469 0.18195975 0.60226029 4287331714
0.28474888 0.1815163 0.60229272 4287003258
0.2953181 0.18182983 0.60221165 4287003514
0.3036589 0.18171436 0.60103124 4287069304
-0.34008792 0.19433597 0.60900003 4286348156
-0.33476606 0.19553798 0.6079697 4286414717
-0.32530648 0.19595419 0.60475039 4286612093
-0.31468636 0.19705482 0.60287517 4286941315
-0.30527321 0.19581483 0.60584021 4287203974
-0.29487717 0.19660734 0.604065 4287729803
-0.28506494 0.19687583 0.60423684 4287927445
-0.27501437 0.19662309 0.60423267 4288256407
-0.26489058 0.19646139 0.60451841 4288519067
-0.25517482 0.19631563 0.6054005 4288782240
-0.24465264 0.19669624 0.60419756 4289045410
-0.2350522 0.19654199 0.60444736 4289308068
-0.22483253 0.19575901 0.60377783 4289373605
-0.21503684 0.19527838 0.60503983 4289636264
-0.20493783 0.19478725 0.60368669 4289768107
-0.19529632 0.19382928 0.60380495 4290096817
-0.18474109 0.1933971 0.60363418 4290294450
-0.17492141 0.19304197 0.60336977 4290425522
-0.16509911 0.19317743 0.60291636 4290556596
-0.15510128 0.19278711 0.60281539 4290753718
-0.14520442 0.19228375 0.60246301 4290818741
-0.13539031 0.19192383 0.60216969 4290818737
-0.12513939 0.19173515 0.60252088 4290884788
-0.11566803 0.191603 0.60133344 4290950328
-0.10430513 0.19114061 0.60078269 4291016119
-0.095098302 0.19113483 0.60121429 4291015349
-0.084840126 0.19130363 0.6006 4290884019
-0.077593289 0.19096343 0.60084611 4291212470
-0.062425327 0.19074899 0.60039991 4291146674
-0.055018231 0.19144957 0.60073531 4290949298
-0.044988547 0.19106776 0.60148394 4290817711
-0.035312589 0.19102998 0.6004349 4290619555
-0.025316134 0.19127722 0.60071433 4290552481
-0.018936001 0.190938 0.60000002 4290355871
-0.32769799 0.200406 0.60000002 4286613120
-0.3087357 0.20001851 0.60200006 4287139216
-0.295086 0.200406 0.60000002 4287401096
-0.28119957 0.20082679 0.60000002 4288059542
-0.2780436 0.2006164 0.60000002 4288257945
-0.26194802 0.20075667 0.59999996 4288783269
-0.25879198 0.200406 0.60000002 4288783269
-0.240382 0.200406 0.60000002 4289045155
-0.226706 0.20040599 0.59999996 4289373350
0.066746771 -0.1503159 0.61900002 4288069887
0.079227872 -0.1503159 0.61900002 4286294519
0.081941158 -0.1503159 0.61900002 4286883057
0.096945129 -0.15067393 0.61780006 4290353828
-0.19340098 -0.14187142 0.61872226 4282416577
-0.1855426 -0.14247417 0.61836374 4284788217
-0.17623198 -0.14177561 0.61724997 4284920575
-0.16385099 -0.14130662 0.61499989 4285053695
-0.15490285 -0.14159456 0.61587507 4285053439
-0.14543507 -0.1417225 0.61735719 4285119743
-0.13314809 -0.14283353 0.61569238 4285119487
-0.12612401 -0.14351813 0.61619043 4285577983
-0.11104455 -0.14377032 0.61522222 4285905919
-0.10537071 -0.14421998 0.6166538 4285644287
-0.094845414 -0.14279661 0.61493748 4285448447
-0.085289598 -0.14363483 0.61407155 4286366719
-0.074546888 -0.14321409 0.61332506 4286301695
-0.064797051 -0.14358027 0.61394006 4286432511
-0.054854587 -0.14376026 0.61542559 4286498303
-0.046506718 -0.14477676 0.61605561 4286695167
-0.033611435 -0.14265314 0.61282617 4286104063
-0.026795939 -0.14333291 0.61329168 4286301183
-0.01343721 -0.14376794 0.61453861 4286300927
-0.0060831048 -0.14487506 0.61638707 4286103807
0.0058481907 -0.14394683 0.61342436 4285577727
0.014900827 -0.14395851 0.61310351 4285315327
0.026187167 -0.14490296 0.61254168 4285248767
0.035042442 -0.14538945 0.61412007 4285379839
0.045161389 -0.14677373 0.61670583 4285248255
0.054901909 -0.14580026 0.61469454 4285378815
0.065296963 -0.14608233 0.61361122 4286428415
0.07500957 -0.14558539 0.61326092 4287544062
0.084637545 -0.14514063 0.6130653 4286426102
0.095439166 -0.14542796 0.6136139 4287471316
0.10551372 -0.1451856 0.61240578 4290486441
0.11144742 -0.14284348 0.6121667 4290946725
-0.19422062 -0.13557693 0.61709803 4280835486
-0.18594702 -0.13569315 0.61226535 4281955256
-0.1749865 -0.13807999 0.61177278 4284854526
-0.1644951 -0.13808151 0.61120015 4284921599
-0.15572432 -0.13777904 0.61061907 4285183999
-0.14362758 -0.1376774 0.61155009 4285053951
-0.13647373 -0.13786347 0.61066663 4285775359
-0.12447683 -0.13874975 0.61055559 4285904383
-0.11646605 -0.13929385 0.61033332 4285117439
-0.10760557 -0.13972662 0.61066669 4285251071
-0.08449313 -0.1395741 0.61000001 4286893567
-0.064225912 -0.13968849 0.61049998 4286169855
-0.054411042 -0.13968851 0.61050004 4286235903
-0.049198531 -0.1395741 0.61000001 4286366975
-0.013369166 -0.1395741 0.61000001 4286694655
0.016065244 -0.13977431 0.61087501 4285774847
0.10809042 -0.13451281 0.6128 4290683294
0.11208323 -0.13495618 0.6159687 4290879905
-0.19210546 -0.12788621 0.61726671 4280440470
-0.18538675 -0.12475967 0.61335003 4280702871
-0.17914683 -0.1203225 0.61000001 4280309397
0.099256203 -0.120717 0.61200005 4283190627
0.10438037 -0.12444639 0.61422008 4289040280
-0.18335222 -0.11554941 0.615381 4280636816
-0.17796092 -0.11364599 0.61091995 4280636819
0.098063521 -0.11423437 0.61232263 4283190102
0.10245355 -0.11578923 0.61602938 4287134081
-0.18150426 -0.10698841 0.61836362 4281620370
-0.17578889 -0.10476945 0.61377591 4281883028
-0.16912523 -0.10008334 0.61049998 4282736788
0.095564134 -0.10477396 0.61373591 4283124056
0.10026985 -0.10731518 0.61825001 4283320660
-0.17270257 -0.096052125 0.61567748 4281620627
-0.16746102 -0.093581729 0.61129636 4281489040
0.088663876 -0.093490362 0.61233336 4282795349
0.092878431 -0.09551961 0.61611903 4282992727
-0.1706607 -0.089393698 0.61800003 4281292429
-0.16469845 -0.085175782 0.6142 4281095567
-0.15892985 -0.082086161 0.61040002 4281226892
0.086669236 -0.084397264 0.61382055 4282664277
0.090706944 -0.087633349 0.61833334 4282730328
-0.16247496 -0.075699709 0.61727583 4281685898
-0.15733927 -0.074334219 0.61300009 4281620106
0.078582168 -0.073073201 0.61200005 4282531666
0.083356164 -0.075381503 0.61464715 4282795344
-0.16035503 -0.06810341 0.61900002 4283326339
-0.15465066 -0.06545011 0.61564702 4283325825
-0.1478418 -0.061582252 0.61084622 4283720066
0.076510847 -0.064350888 0.61246812 4284436822
0.082332432 -0.065735132 0.61680001 4285356636
-0.15207151 -0.057986714 0.61730766 4286018955
-0.14620957 -0.056175657 0.61239392 4285887627
0.065777183 -0.050140947 0.61500001 4285616980
0.073537797 -0.058247071 0.61131585 4285421650
-0.14161207 -0.045877524 0.61733335 4287071133
-0.13588914 -0.042679269 0.61362863 4286676114
-0.12887877 -0.0401075 0.61000001 4287267740
0.058264803 -0.042893849 0.61084998 4285355087
0.063677177 -0.045078948 0.61481142 4285421397
-0.13310072 -0.035991207 0.61571056 4287333530
-0.12790568 -0.033194292 0.61126316 4287859360
0.057587359 -0.034588296 0.61215156 4285289809
0.061980333 -0.036957074 0.61729419 4285487187
-0.13107161 -0.029468274 0.61866671 4288056229
-0.12479233 -0.024936076 0.61384618 4288056993
-0.11925296 -0.021925434 0.61000001 4288122785
0.049440254 -0.023525352 0.6111818 4285486157
0.053793266 -0.025252873 0.61406261 4285486419
-0.12253212 -0.017006971 0.61627585 4288254117
-0.11726595 -0.013779319 0.61308831 4288385702
0.046041682 -0.01414352 0.61316127 4285224015
0.051968887 -0.017009756 0.61657155 4285420884
-0.11427909 -0.0053997361 0.61465114 4288451495
-0.10889496 -0.0017242085 0.61055559 4288582058
0.038327526 -0.0025165055 0.61176926 4285026883
0.042975821 -0.0058128266 0.61562216 4285092688
-0.11184105 0.0029623602 0.61700004 4288779174
-0.10625568 0.005270151 0.61298013 4288714149
0.036506068 0.0054202569 0.61421567 4284106303
0.040826116 0.0039525144 0.6185714 4285026893
-0.10288236 0.014031027 0.6153056 4288910499
-0.097915694 0.017428691 0.61245453 4288975526
0.028110819 0.01754114 0.61157143 4284894791
0.032881021 0.014076597 0.61522728 4284171579
-0.10100877 0.022371329 0.61862499 4288910758
-0.095162787 0.025410777 0.61385715 4288910759
-0.089306034 0.029412167 0.61000001 4288975768
0.025342159 0.025393892 0.61350888 4284105791
0.031305242 0.021556007 0.61780006 4283777587
-0.092401959 0.033239737 0.61671436 4289107108
-0.087304436 0.035400596 0.6133824 4288976033
0.018169878 0.03614714 0.61241943 4284435008
0.023001863 0.034246322 0.6162973 4284631878
-0.083493091 0.044682648 0.61577147 4289107104
-0.079008788 0.047658708 0.61081827 4289106850
0.014934167 0.04508457 0.61305714 4284566341
0.020529279 0.0426859 0.61857146 4284828485
-0.081419669 0.052577339 0.61630768 4289041052
-0.07539326 0.055886816 0.61314291 4289041055
-0.068984896 0.0593591 0.61000001 4289041564
0.0084377527 0.056519084 0.61106253 4284435019
0.013280606 0.054582257 0.61533928 4284303685
-0.072756268 0.063890949 0.61605889 4288909470
-0.067496128 0.066540502 0.61207145 4288712859
0.0061072884 0.065671973 0.61432654 4283974723
0.011838598 0.062669389 0.61821061 4283778369
-0.071088023 0.071088023 0.61900002 4288778654
-0.064247638 0.07454332 0.61517644 4288778136
-0.058069143 0.077559195 0.61118752 4288712343
-0.0023651335 0.076661378 0.61096781 4283909953
0.0031188251 0.074134357 0.6158936 4283778111
-0.062086068 0.082350694 0.61830771 4288646294
-0.055982828 0.085174024 0.61345834 4288646035
-0.010160566 0.089306034 0.61000001 4283385408
-0.0049017281 0.084883593 0.61197686 4283055421
0.00054265663 0.080855846 0.61900002 4283253057
-0.052311834 0.093911417 0.61620849 4288382093
-0.047265176 0.096110307 0.61221886 4288316042
-0.01226339 0.095794737 0.61260527 4283713347
-0.0075625656 0.09304633 0.61640924 4282398777
-0.05046707 0.10039148 0.61900002 4287921802
-0.044064488 0.10441027 0.61468846 4287921800
-0.038191378 0.10715752 0.61092317 4287527296
-0.022006623 0.10706209 0.61061108 4284566857
-0.016323794 0.10451625 0.61321318 4284172614
-0.041926406 0.11248603 0.61786669 4288251535
-0.035489094 0.11532485 0.61357152 4286738548
-0.024527851 0.11556046 0.61379701 4284895566
-0.018444382 0.1126691 0.61688894 4284435272
-0.032674812 0.12231064 0.61705011 4285554011
-0.027150441 0.12320331 0.61768579 4285026895
0.19372843 0.16985154 0.61900002 4287922557
0.20620954 0.16985154 0.61900002 4288053636
0.2155502 0.16949552 0.61861539 4288382599
0.2251619 0.16982105 0.61888891 4288119942
0.23579352 0.16952471 0.61860001 4288119428
0.24410811 0.16960581 0.61849999 4288317321
0.25539395 0.16975288 0.61900002 4287989640
0.26458386 0.16985154 0.61900002 4287659905
0.27132833 0.16985154 0.61900002 4287594114
0.28667724 0.16978294 0.61875004 4287265660
0.29412821 0.16934243 0.61887509 4287529087
0.30519673 0.16951665 0.61869234 4287004027
0.31455538 0.16950737 0.61774999 4286936949
-0.11261435 0.17942286 0.61885709 4291278004
-0.10392868 0.17929697 0.61890912 4291409590
-0.094688468 0.17931776 0.61750019 4291409851
-0.085759997 0.17905869 0.61809105 4291409589
-0.074635454 0.17923069 0.61766672 4291343539
-0.064039208 0.17916086 0.61821055 4291409075
-0.055664554 0.17928281 0.61752182 4291409588
-0.044303179 0.17946301 0.61758828 4291145392
-0.034645345 0.17932993 0.61750001 4290947749
-0.02506499 0.17896001 0.61737937 4290552993
-0.014865141 0.1778838 0.61660415 4290224282
-0.0047965939 0.17785609 0.61651999 4290091923
0.0050322176 0.17703095 0.61658621 4289565580
0.014747141 0.17705454 0.61616671 4289368202
0.025852434 0.17753339 0.61562276 4288973447
0.035093281 0.17695384 0.61504298 4288907654
0.044753835 0.17694776 0.61531353 4288710789
0.055030685 0.17696068 0.61544728 4288513666
0.064960822 0.17666835 0.61522353 4288644740
0.074915864 0.17624509 0.61479521 4288579202
0.084977448 0.17661905 0.61469221 4288513668
0.09503895 0.17659838 0.61484402 4288513410
0.10480271 0.17638823 0.61403823 4288578691
0.11483786 0.17583506 0.61555701 4288447873
0.12499925 0.17593895 0.614259 4288447874
0.13499545 0.17565724 0.6139999 4288382338
0.14473763 0.17455436 0.61436373 4288447875
0.15496746 0.17391238 0.61459988 4288316545
0.16490416 0.17414567 0.61453646 4288316290
0.17507923 0.17417911 0.61492598 4288316803
0.18514758 0.17432682 0.61435908 4288317062
0.1948788 0.17377859 0.61369771 4288317058
0.20502104 0.17357707 0.61363405 4288251013
0.21477652 0.17282507 0.613657 4288251013
0.22538401 0.17322969 0.6137569 4288120200
0.2350273 0.17256881 0.61349231 4288120454
0.24517632 0.17323409 0.61335123 4287923333
0.25489798 0.17274535 0.6144067 4287726210
0.26506174 0.1733958 0.61365384 4287462781
0.27519405 0.17348136 0.61415076 4287331195
0.28503039 0.17363675 0.61372495 4287398017
0.29483545 0.17343612 0.61376601 4287266431
0.30482158 0.1728805 0.61333776 4286872182
0.31296277 0.17251484 0.61325651 4286607728
-0.34476259 0.18856163 0.61866671 4286545271
-0.3349359 0.18781702 0.61602092 4286611320
-0.32604173 0.1882792 0.61629784 4286808701
-0.31412321 0.18807121 0.61525637 4287203200
-0.30494905 0.18786161 0.61613452 4287400323
-0.29475486 0.18809462 0.61669225 4287465862
-0.28503996 0.18831487 0.61608106 4287729289
-0.27491584 0.188087 0.61616266 4288189841
-0.26636463 0.18838103 0.61690003 4288518037
-0.25486812 0.188299 0.61684847 4288716189
-0.24457279 0.18736918 0.61656511 4288979361
-0.23479846 0.18811238 0.61570728 4289636261
-0.22483259 0.18817478 0.61564577 4289569702
-0.21518326 0.18742466 0.615125 4289964715
-0.20489073 0.1868318 0.61466205 4290096300
-0.19506754 0.18628941 0.6150263 4290228143
-0.18488631 0.18647122 0.61467439 4290359730
-0.17498668 0.1850042 0.61421698 4290687669
-0.16486625 0.18491112 0.61387342 4290753975
-0.15518337 0.18399127 0.61407083 4291016631
-0.14503497 0.18349284 0.61389071 4291016374
-0.13480181 0.1836284 0.61367136 4290884533
-0.12504257 0.18362701 0.61335933 4291015861
-0.11506315 0.18287086 0.61457819 4291081911
-0.10525256 0.18289869 0.6138612 4291147445
-0.094897702 0.18244603 0.61285198 4291278007
-0.084836565 0.18270262 0.61291051 4291343542
-0.07478147 0.18228418 0.61198258 4291409078
-0.064954244 0.18248327 0.61279386 4291343286
-0.054962773 0.18311486 0.61236119 4291277490
-0.04494191 0.18296172 0.61263239 4291079852
-0.035444476 0.18198666 0.61221755 4291013547
-0.025234811 0.18200187 0.61242229 4290750375
-0.014641034 0.18111174 0.61200023 4290290078
-0.0043294774 0.18160631 0.61137849 4289960593
0.004725452 0.18163309 0.611341 4289698453
0.015256543 0.18097576 0.61136669 4289236877
0.024381893 0.18110473 0.61155993 4289302929
0.033238329 0.18070419 0.61044449 4289106062
0.045346506 0.18074821 0.61128581 4288841602
0.055460893 0.18089895 0.61050004 4288711045
0.064286575 0.18122864 0.61043477 4288841862
0.073049121 0.18021637 0.61000001 4288645510
0.081864588 0.18031485 0.61033332 4288907654
0.095694564 0.18057798 0.61050004 4288447615
0.10053613 0.18021637 0.61000001 4288775553
0.128344 0.18021637 0.61000001 4288512893
-0.34138465 0.19190682 0.61382353 4286151545
-0.33530173 0.19223396 0.61127031 4286480763
-0.32412401 0.19145949 0.61184615 4286874494
-0.31564125 0.19337387 0.61159015 4287006081
-0.30453053 0.19136818 0.6118573 4287137406
-0.29527673 0.19211508 0.61262017 4287335301
-0.28537253 0.19206423 0.61197835 4287795852
-0.2747947 0.19179016 0.61211383 4288256409
-0.26483288 0.19138555 0.61250013 4288716191
-0.25501159 0.19139621 0.61221439 4288913311
-0.24543127 0.19195575 0.61266023 4289045152
-0.23519464 0.1916718 0.61178589 4289372836
-0.22511005 0.19137523 0.61080003 4289570472
-0.21487547 0.19108474 0.61055553 4289832871
-0.20399916 0.19075261 0.61056256 4289964713
-0.19498232 0.19053033 0.61115384 4290162352
-0.18885 0.19072211 0.61025 4290293682
-0.17709778 -0.1506426 0.62866664 4284922111
-0.15456598 -0.15063825 0.62614292 4284856831
-0.14516434 -0.15088053 0.6263001 4284922111
-0.13763711 -0.15057495 0.62800002 4285316095
-0.12462167 -0.15109 0.62900001 4285316863
-0.10376014 -0.15109386 0.62157148 4286496767
-0.094381548 -0.15169947 0.62547821 4286562559
-0.087122113 -0.15214579 0.62766671 4286498559
-0.07489378 -0.1520382 0.62816662 4286170111
-0.066573575 -0.15199742 0.62704992 4286366719
-0.054925799 -0.15130612 0.62515384 4287088639
-0.043878481 -0.15230894 0.62720001 4286694399
-0.034729928 -0.15176904 0.6276471 4286497791
-0.024138574 -0.15201394 0.62580752 4286038783
-0.015143566 -0.15256688 0.62515628 4285447423
-0.0042649126 -0.1521055 0.62492001 4285380863
0.0045066299 -0.15241523 0.62585723 4285184767
0.015160824 -0.15223834 0.62476188 4285315327
0.024249801 -0.15232861 0.62611115 4285117695
0.03482461 -0.15238366 0.625 4285117183
0.045109559 -0.15288137 0.62503701 4285510655
0.054664589 -0.15243053 0.62447613 4287610879
0.064748138 -0.15294303 0.62511539 4288070654
0.075262055 -0.15383676 0.62548715 4286687213
0.085572012 -0.15468153 0.62574989 4289240506
0.093194038 -0.15360871 0.622931 4289960613
-0.20466794 -0.14463587 0.6254186 4281033123
-0.19684649 -0.14506876 0.62248284 4283337682
-0.184614 -0.14632131 0.62422228 4284724223
-0.17475265 -0.1460167 0.62347722 4284790271
-0.16571422 -0.14589389 0.62376314 4284856575
-0.15452369 -0.14664625 0.62222224 4285053951
-0.14518331 -0.14656825 0.62244886 4285053951
-0.13673483 -0.14693311 0.62234604 4285185535
-0.12469104 -0.14729369 0.62112498 4285119743
-0.10395464 -0.14869358 0.62043744 4286364415
-0.095099539 -0.14795691 0.62225926 4286235903
-0.086865745 -0.14871423 0.62320006 4286301695
-0.075734802 -0.14846627 0.62300003 4286236415
-0.063684836 -0.14905745 0.62189996 4286432255
-0.055034734 -0.14834292 0.62073338 4286891007
-0.043592323 -0.14840059 0.6215834 4286694911
-0.035372876 -0.14802508 0.62232 4286432767
-0.023949362 -0.14813402 0.62333328 4286366975
-0.01518699 -0.1485623 0.62131262 4286038527
-0.0056262999 -0.14914627 0.62166673 4285512703
0.0043203891 -0.14851138 0.62113345 4285381119
0.014303364 -0.14966641 0.62137496 4285053439
0.025257802 -0.14945501 0.62281823 4285249023
0.034372281 -0.14922953 0.62092865 4285314303
0.045527052 -0.14963239 0.62066668 4285379327
0.055180356 -0.14950179 0.62012494 4286363647
0.061814647 -0.14955203 0.62033337 4288990207
0.073376998 -0.14947167 0.62 4286494207
0.088667817 -0.14932045 0.62050003 4287144421
0.091621965 -0.14926018 0.62024999 4288061398
-0.20257944 -0.13743104 0.62300003 4280441238
-0.19801103 -0.13349874 0.62038463 4280703123
0.11305493 -0.13099153 0.62 4290946208
-0.20016667 -0.12241597 0.62900001 4281029008
-0.19486232 -0.1236081 0.62334216 4281292437
-0.18969314 -0.1206644 0.62 4281291923
0.10888233 -0.12378217 0.62099999 4291011746
0.11261707 -0.12518655 0.62204444 4291143076
-0.19360468 -0.11607656 0.62595123 4281227152
-0.18814787 -0.11426851 0.62160873 4281096080
0.10716578 -0.11446978 0.62400001 4291078050
0.11193528 -0.11724329 0.62691659 4291209378
-0.19146751 -0.10881888 0.62849998 4281817235
-0.18548977 -0.10481134 0.62310004 4281620625
-0.17936599 -0.10055367 0.62 4281292427
0.099211209 -0.10193089 0.62066674 4283386714
0.10371096 -0.10539594 0.6247046 4288777361
-0.18328275 -0.095879562 0.62677783 4281160846
-0.17747071 -0.094097652 0.62248707 4281160593
0.097358368 -0.094009236 0.6230588 4283321177
0.10188399 -0.097482696 0.62700003 4285884016
-0.18102534 -0.088915035 0.62839997 4281160586
-0.17476067 -0.085342653 0.62522048 4281357706
-0.16896197 -0.081484415 0.62142855 4281291658
0.089827649 -0.081660181 0.62100005 4282926935
0.094710387 -0.085509889 0.62483341 4283124308
-0.17291921 -0.076020636 0.62656671 4282866816
-0.16689892 -0.074192889 0.62219512 4282407301
0.087924451 -0.073689215 0.62222725 4284372314
0.092224807 -0.076360308 0.62666672 4284437595
-0.16377808 -0.065342419 0.62440479 4285230984
-0.15806095 -0.062152449 0.62099999 4285558923
0.087318294 -0.067669466 0.62250006 4285816928
0.091062576 -0.069442816 0.62700003 4286210916
-0.16118175 -0.059411261 0.62750006 4286546072
-0.15612011 -0.056327146 0.62392861 4286742421
-0.14728999 -0.050913464 0.62180001 4287005083
0.068322577 -0.051468659 0.6201666 4285683277
0.074756116 -0.053254105 0.62532568 4285684058
-0.15190363 -0.046282176 0.62718177 4287465630
-0.14608896 -0.044593286 0.62359995 4287400351
0.068505764 -0.044117156 0.62214994 4285487702
0.072956704 -0.046589985 0.62568426 4285749844
-0.14310445 -0.036211979 0.62567562 4287793824
-0.137631 -0.033993714 0.62216669 4287136407
0.059245132 -0.030981399 0.62 4285355861
0.065681241 -0.034501299 0.62476367 4285618005
0.070582181 -0.037496787 0.62900001 4285684308
-0.13368376 -0.025480099 0.62333333 4287727514
-0.12881739 -0.02259546 0.61999995 4288319394
0.058372978 -0.024176104 0.62138468 4285552467
0.062841013 -0.026306266 0.62557572 4285683541
-0.1309213 -0.016501885 0.62544453 4288056472
-0.12639387 -0.013702556 0.62307322 4288385187
0.055415314 -0.014070357 0.6237551 4285420882
0.060105141 -0.019299816 0.62900001 4285749583
-0.1234409 -0.0054574162 0.62538099 4288450981
-0.11830265 -0.0029137302 0.6215294 4288647845
0.047561776 -0.0036936642 0.62197226 4285223504
0.053092688 -0.0055967728 0.62625015 4285420112
-0.12195741 0.0020184519 0.62758332 4288779426
-0.11602439 0.0051924125 0.62480956 4288713635
0.039677933 0.0092400666 0.62 4284568142
0.045076363 0.0047258269 0.62325817 4285157452
0.051208816 0.0020935677 0.62810004 4285157714
-0.11242783 0.013483573 0.62640905 4288713639
-0.10770086 0.01528225 0.62177426 4288778913
0.037794538 0.015329651 0.62137848 4284237373
0.043148849 0.013665431 0.62605548 4284368958
-0.10465647 0.024538029 0.6253171 4288844962
-0.099042952 0.028842552 0.62075007 4289172907
0.029146938 0.028256558 0.62090909 4284500540
0.034807477 0.02443511 0.62434548 4284171581
-0.10199043 0.032876182 0.62805891 4289107109
-0.096204013 0.036147539 0.62404662 4289106853
-0.089139462 0.039677933 0.62 4289172892
0.027069479 0.036356114 0.62332356 4284566082
0.031963263 0.033702742 0.62683868 4284500295
-0.093271114 0.044039279 0.62634295 4288976287
-0.087937869 0.045763373 0.62192857 4289041570
0.019023666 0.048374463 0.62 4284369218
0.024752967 0.045209128 0.62383336 4284434757
0.030328283 0.041356746 0.62900001 4284303686
-0.091304243 0.05052055 0.62866664 4289041560
-0.085424036 0.055161204 0.62476194 4288975519
-0.0798994 0.059245132 0.62 4288778140
0.017982664 0.055876818 0.62154543 4284237633
0.022261284 0.053706385 0.62636667 4284237634
-0.082204364 0.063070662 0.62609518 4288975518
-0.077160284 0.066019349 0.62233329 4288844188
0.0092549697 0.069140069 0.62100005 4284040766
0.014715164 0.065101027 0.62376922 4283842877
0.020386444 0.060608789 0.62849998 4283711045
-0.073876478 0.074564688 0.625907 4288843928
-0.068107672 0.07729201 0.62150007 4289040533
0.0076096081 0.076073594 0.62396777 4283646523
0.011668018 0.073332101 0.62742108 4283843391
-0.071425445 0.083055697 0.62833339 4288646043
-0.065753825 0.085539348 0.62498093 4288711317
-0.058701597 0.089139462 0.62 4288776595
-0.0014878203 0.087161765 0.62113339 4281937972
0.0038629572 0.084481254 0.62475479 4281806645
-0.061697435 0.094225712 0.62780005 4288579987
-0.056626014 0.095781751 0.62283713 4288382609
-0.0037749952 0.095805131 0.62349027 4282002991
0.0013212243 0.092368141 0.62790006 4281739823
-0.0536616 0.10424849 0.62500006 4288448658
-0.048569966 0.10696582 0.6225 4288381585
-0.011503452 0.10640153 0.62209523 4283318591
-0.0063831145 0.10445528 0.62604016 4282330929
-0.050139636 0.11240138 0.62849998 4289040274
-0.045329675 0.11536743 0.62470734 4288579984
-0.039709933 0.11858626 0.62050003 4288316305
-0.02014317 0.11922579 0.62100005 4284304967
-0.014059117 0.11569806 0.62438333 4283909439
-0.0082655642 0.11186828 0.6286 4283318332
-0.042232849 0.12378134 0.62725002 4288382605
-0.036182612 0.12578839 0.62214595 4287199096
-0.023675542 0.12646087 0.62300003 4284567371
-0.016810484 0.12390469 0.62671435 4283843650
-0.033836063 0.13411485 0.62657452 4286080614
-0.025430722 0.13350111 0.62735575 4284304198
-0.019299816 0.13068733 0.62900001 4283646508
-0.033998303 0.16901198 0.62888891 4290750115
-0.028674014 0.16928697 0.62900001 4290421922
-0.013216552 0.1693148 0.62808335 4290222743
-0.0042043733 0.16875435 0.62795454 4289565579
0.0043611126 0.16892263 0.62780774 4289235590
0.014028369 0.16919404 0.62817657 4288776066
0.025899412 0.16899791 0.62861109 4288447868
0.03448759 0.16893426 0.62753844 4288250746
0.045109 0.16859975 0.62699997 4288053115
0.055023108 0.16892043 0.62764293 4287921013
0.064807765 0.16844493 0.62744117 4287790198
0.075437993 0.16788793 0.62700015 4287724660
0.085355483 0.16748816 0.6269362 4287855737
0.09521912 0.16772246 0.62640005 4288052861
0.10495888 0.16797039 0.62546158 4288053631
0.11515724 0.16800486 0.62607414 4288250242
0.12509376 0.16737251 0.62559688 4288184704
0.13494198 0.16734885 0.62488335 4288316544
0.14521097 0.16737913 0.6254577 4288382085
0.15506336 0.16666581 0.62520552 4288513669
0.164869 0.16677651 0.62498599 4288382852
0.17503282 0.16669084 0.6253857 4288514183
0.18492013 0.16656131 0.62457877 4288317318
0.19536155 0.16618171 0.62370259 4288382853
0.20530488 0.16596209 0.62383556 4288382342
0.2148294 0.16529849 0.62343889 4288251522
0.22488317 0.16537598 0.62411648 4288251785
0.23483397 0.16536136 0.62431735 4288251273
0.2449535 0.16531146 0.62428075 4287988870
0.25474781 0.16585259 0.62374693 4288054404
0.2653107 0.16588381 0.62438744 4287857540
0.27510515 0.16594946 0.62447518 4287660416
0.28485474 0.16618462 0.62393391 4287199608
0.29521859 0.1657806 0.62464207 4287594366
0.30481339 0.16572404 0.62438101 4287135356
0.31513065 0.16534476 0.6244939 4287068791
0.32144612 0.16381863 0.62624997 4287002742
-0.33195686 0.17921259 0.62900001 4286742906
-0.32925233 0.17974208 0.62700003 4287006081
-0.31375986 0.17921259 0.62900001 4287269248
-0.30328283 0.17921259 0.62900001 4287861651
-0.27130026 0.17921259 0.62900001 4288912024
-0.23104638 0.17921259 0.62900001 4289569443
-0.22376759 0.17921259 0.62900001 4289765282
-0.21413416 0.17835808 0.62813812 4289898149
-0.20520858 0.17850241 0.62773687 4290029995
-0.19526128 0.17838603 0.6276924 4290358702
-0.18466139 0.17789297 0.62623996 4290491058
-0.17509222 0.17760353 0.62603438 4290819253
-0.164552 0.17715362 0.62520003 4290884790
-0.15512173 0.17673609 0.62519181 4290950323
-0.14459971 0.17656347 0.62515497 4291081654
-0.13504237 0.17573085 0.62518632 4291212728
-0.12481484 0.17583013 0.6240226 4291278776
-0.11525898 0.175531 0.62464029 4291475897
-0.10511244 0.17503163 0.6244207 4291475896
-0.095109172 0.17461675 0.62394154 4291475386
-0.085018985 0.17478344 0.62394953 4291474870
-0.07507088 0.17470251 0.62453371 4291540404
-0.065043844 0.1746068 0.62436473 4291539893
-0.054874998 0.17477952 0.6244238 4291342766
-0.045090914 0.17507955 0.6243909 4291276719
-0.035067465 0.17425022 0.62379807 4290948007
-0.024973363 0.17405984 0.6238445 4290683807
-0.014959311 0.17283575 0.62305897 4290288793
-0.0051019439 0.17284113 0.62324607 4289762703
0.0047180266 0.17233694 0.62289995 4289368202
0.015188554 0.17200367 0.62303853 4289039497
0.02435885 0.17290227 0.62330973 4288907908
0.035097651 0.17206402 0.62285995 4288513154
0.045588285 0.17212103 0.62247926 4288381563
0.055112496 0.1718844 0.62244451 4288316031
0.065058313 0.17177595 0.62261915 4288053114
0.07461226 0.17135015 0.62221628 4288118907
0.084856614 0.17166935 0.62211376 4288184703
0.094882488 0.17186901 0.62165785 4288381570
0.10542386 0.1719061 0.62128127 4288382082
0.11456328 0.1715717 0.62075865 4288513406
0.12502399 0.17138974 0.62064302 4288447361
0.13472734 0.17140658 0.62070382 4288315776
0.14512983 0.1709446 0.62111771 4288184962
0.15482244 0.17044832 0.62045461 4288382084
0.16512544 0.17023465 0.61999995 4288447620
0.17440678 0.17042059 0.62008327 4288317061
0.18454182 0.17067081 0.62050009 4288316292
0.19648731 0.17012593 0.62 4288250494
0.20453934 0.17020433 0.62028569 4288185991
0.2331758 0.17012593 0.62 4288118913
0.26850545 0.17012593 0.62 4287660152
0.27665848 0.17012595 0.61999995 4287330171
0.28331059 0.17051493 0.62028569 4286871664
-0.35091299 0.18260424 0.62740004 4286150778
-0.34528714 0.18467113 0.62465769 4286348921
-0.33514073 0.18309022 0.62394261 4286940029
-0.3248218 0.18365142 0.6236707 4287005822
-0.31483439 0.18324979 0.62450641 4287202944
-0.30488878 0.18325825 0.62476361 4287531654
-0.2948167 0.18369906 0.62304759 4287729032
-0.28496113 0.18386553 0.62456161 4287992205
-0.27523631 0.18341543 0.6250658 4288189583
-0.26524296 0.1842241 0.62382919 4288648598
-0.25473911 0.18351498 0.62316918 4288715416
-0.24530262 0.18320844 0.6240952 4288912540
-0.23481022 0.18341014 0.62365836 4289373091
-0.22541583 0.18327358 0.62470841 4289701544
-0.2151852 0.18289189 0.62383336 4289833897
-0.20524895 0.18191493 0.62235701 4290030765
-0.19458534 0.18159354 0.62251216 4290425267
-0.18555641 0.18164793 0.62120694 4290490548
-0.17475307 0.18079419 0.62080002 4290752689
-0.16545607 0.18088061 0.62105554 4290687923
-0.15347487 0.18046781 0.62080002 4291082678
-0.14560154 0.18075855 0.62094122 4291213500
-0.13535349 0.18067564 0.62100005 4291147443
-0.12441339 0.1803591 0.62080002 4291081403
-0.34571174 0.19030504 0.62200004 4286282621
-0.083493896 -0.16144836 0.63763642 4286956031
-0.07985644 -0.16027132 0.63700002 4287614463
-0.060869597 -0.16027132 0.63700002 4286892543
-0.053806417 -0.1614776 0.63735008 4286038527
-0.046402402 -0.16167545 0.63711548 4285447423
-0.032012362 -0.16101761 0.63742864 4284856575
-0.025735831 -0.16149205 0.63704163 4285381631
-0.01578033 -0.16044261 0.63712502 4285381375
-0.0035423178 -0.16052292 0.63800001 4285315071
0.0052873828 -0.16076763 0.63688236 4285183999
0.016220087 -0.16052292 0.63800001 4285314559
0.025943572 -0.1607784 0.63742858 4285051647
0.035331205 -0.16158344 0.63682145 4285642239
0.046202302 -0.16142708 0.63687503 4288596991
0.055412374 -0.16199213 0.6365 4286033660
0.065663069 -0.16202758 0.63673699 4287931876
0.074062593 -0.16262078 0.635625 4290224818
0.080210619 -0.16097441 0.63100004 4290290600
-0.21442406 -0.15300028 0.63651854 4281954483
-0.20639999 -0.15336235 0.63488454 4284655345
-0.19504987 -0.15343577 0.63550007 4284788991
-0.18509871 -0.15365927 0.63450003 4284790271
-0.1750519 -0.15466842 0.63554054 4284659711
-0.16512713 -0.15442859 0.63402182 4284725247
-0.15554512 -0.155277 0.63532144 4284791039
-0.14459182 -0.15537262 0.63335305 4285053183
-0.13448569 -0.15477552 0.63321948 4285250047
-0.12484819 -0.15505004 0.63451362 4285119743
-0.11558341 -0.1555275 0.63480765 4285316607
-0.10299218 -0.15636326 0.63700008 4286694143
-0.097725987 -0.15692158 0.63700002 4286692863
-0.083001211 -0.15650816 0.63404 4286432255
-0.075034834 -0.15664327 0.63280648 4286563839
-0.064055748 -0.15658994 0.6335333 4287154687
-0.055103783 -0.15650113 0.63352787 4286892287
-0.045417771 -0.1572462 0.6347242 4286432255
-0.034945317 -0.15640564 0.63385719 4286103551
-0.025509752 -0.1567921 0.63265389 4285381887
-0.015154762 -0.15796109 0.63400006 4285447167
-0.0036255282 -0.1576373 0.63575 4285118463
0.0052093621 -0.15754887 0.63395244 4285183743
0.015695695 -0.15823905 0.6370557 4285314559
0.025340695 -0.15774739 0.63504344 4285379583
0.034881763 -0.1572652 0.63316 4285182719
0.044471223 -0.15782826 0.63279176 4287677695
0.055483721 -0.157656 0.63313794 4288136702
0.064612605 -0.15762807 0.63124007 4285836026
0.074278578 -0.15835002 0.63090008 4288586966
0.081801757 -0.1588783 0.63000005 4290027174
-0.21486993 -0.14501312 0.63430369 4281096598
-0.20806555 -0.14727506 0.63037503 4281624746
-0.19345914 -0.14905511 0.63050008 4284986111
-0.18734927 -0.14954741 0.63040006 4284593151
-0.16375695 -0.1496733 0.63000005 4284594175
-0.21195185 -0.13585386 0.63599998 4282343318
-0.20755742 -0.13495888 0.63264716 4281883799
-0.20565434 -0.12454569 0.63526303 4281423762
-0.20229474 -0.11772876 0.6353637 4282277779
-0.19765331 -0.11352563 0.63308698 4281620625
0.1099077 -0.1110123 0.63000005 4291275428
0.11248033 -0.11127243 0.63090914 4291341733
-0.19507959 -0.10543802 0.63602692 4281160848
-0.18880214 -0.10075559 0.63033336 4281030031
0.10809019 -0.10476875 0.63081831 4290945694
0.1131721 -0.10467619 0.63415229 4291208608
-0.19154893 -0.097412467 0.63577777 4281226633
-0.18734969 -0.093761735 0.63195837 4281291914
0.10575049 -0.094407409 0.63347727 4289893782
0.11144362 -0.097722031 0.63763642 4291143331
-0.18364084 -0.085130759 0.63525003 4282013574
-0.17890327 -0.081989519 0.63050008 4282013320
0.098472044 -0.083157368 0.63076931 4284109918
0.10440622 -0.085369878 0.63521737 4289959322
-0.18156374 -0.077466875 0.63725001 4284178815
-0.17680815 -0.073568165 0.63407141 4284705156
0.096142009 -0.074367784 0.6311177 4287000174
0.10184973 -0.077803664 0.63541669 4291076513
-0.17316616 -0.067644693 0.63571423 4286217362
-0.16726674 -0.063347556 0.63108337 4286414486
0.078978896 -0.060200699 0.63000005 4285750104
0.085565656 -0.061590783 0.63494122 4285750622
-0.16199929 -0.056453884 0.63531256 4287005340
-0.15855154 -0.053277664 0.63585716 4287202971
0.0784266 -0.056334604 0.63000005 4285750105
0.083828457 -0.055676632 0.63389367 4285881946
-0.15588826 -0.045050066 0.63573915 4287596959
0.076805376 -0.04344118 0.63281256 4285881175
0.08169701 -0.046523094 0.63683337 4285881437
-0.15227236 -0.037724242 0.63709098 4287662753
-0.14665192 -0.033584997 0.6322 4287925667
0.069037497 -0.031481098 0.63000005 4285814363
0.074257188 -0.035000544 0.63420457 4285880919
-0.14336632 -0.025194796 0.63478559 4288252837
-0.13824482 -0.022856608 0.63241178 4287859098
0.066675276 -0.023687318 0.63200009 4285618004
0.073013254 -0.026172295 0.63602936 4285814874
-0.14226763 -0.017918075 0.63740003 4288318882
-0.13588257 -0.014973194 0.63456243 4287793559
0.059127364 -0.011972052 0.63033336 4285486673
0.064404868 -0.015648615 0.63362515 4285552211
0.071032792 -0.019575967 0.63800001 4285814873
-0.13240336 -0.0062273066 0.63608694 4287858583
-0.12838317 -0.0045173708 0.63310534 4288516258
0.057872348 -0.0043468508 0.63284618 4285354830
0.061931033 -0.0064029712 0.6373077 4285420878
-0.12313867 0.0065789884 0.63585001 4288517023
-0.11856873 0.0088657299 0.63200003 4288516770
0.048917562 0.0085676629 0.63050008 4284895052
0.054606456 0.0050059636 0.634525 4284697418
-0.12103347 0.012964321 0.63740003 4288910762
-0.11644697 0.015768358 0.63350004 4288779174
0.046941675 0.016266111 0.63236672 4284237118
0.051443096 0.01377141 0.63666672 4284171324
-0.11301959 0.024200927 0.63579416 4288910244
-0.10874224 0.026557237 0.6328572 4288779426
0.038154066 0.027372384 0.63075006 4284697666
0.044386681 0.024799116 0.63547373 4284566342
-0.11037391 0.032094944 0.63780004 4289041823
-0.10546172 0.035414547 0.63434201 4288976033
0.036600094 0.035761036 0.63245004 4284434755
0.042463072 0.03412313 0.63678122 4284434757
-0.10217702 0.043093283 0.63650012 4289041828
-0.097410947 0.046292253 0.63277781 4289041824
0.029030597 0.048384331 0.63075006 4284237631
0.03421738 0.044501189 0.63410413 4284172092
-0.093526512 0.054463305 0.63378048 4289041824
-0.088534914 0.058249593 0.63040006 4289107362
0.026712956 0.055832457 0.63289183 4283974204
0.032238808 0.053633053 0.63639146 4283974461
-0.090509407 0.062265545 0.63599998 4289173151
-0.086093739 0.065321162 0.63288897 4288975776
0.018310213 0.066702828 0.63064718 4283777080
0.023565205 0.064318433 0.63400012 4283841853
-0.08221823 0.07288368 0.63461131 4289106844
-0.077974744 0.077102043 0.63268423 4288975003
0.01600357 0.075501449 0.63293618 4283579451
0.021217875 0.072922632 0.63690001 4283644478
-0.074337587 0.084568962 0.63496155 4288777877
-0.069037497 0.088920303 0.63000005 4288581009
0.008020075 0.086350016 0.63087505 4282396206
0.013028026 0.084073283 0.63394612 4282855981
-0.071298972 0.09292765 0.63662505 4288712084
-0.066515759 0.095404439 0.63368183 4288711830
-0.00055230001 0.099966303 0.63000005 4281672996
0.0056270952 0.095412858 0.63385189 4281476391
0.011186266 0.091727391 0.63800001 4281213215
-0.062470939 0.10286396 0.63531578 4288712599
-0.057470277 0.10711349 0.6323334 4288581014
-0.0019852889 0.1061994 0.63188237 4282331181
0.003216902 0.10393667 0.6360001 4282527021
-0.05353101 0.11436756 0.63306975 4288645778
-0.048567835 0.11727394 0.63057148 4288579983
-0.0104937 0.1198491 0.63000005 4283121207
-0.0048936289 0.11520886 0.63357449 4282987827
0.00093189673 0.11050004 0.6376667 4282528311
-0.052074432 0.12146063 0.63700008 4288514192
-0.046233628 0.12533469 0.63327026 4288382859
-0.013238693 0.12679376 0.63213795 4283120184
-0.0071481275 0.12401406 0.63624245 4282987311
-0.042647988 0.13287018 0.63610524 4288316805
-0.036722891 0.1376297 0.63288242 4286936695
-0.023809327 0.13780579 0.63057154 4284303946
-0.015085907 0.13471901 0.63422227 4283842876
-0.0095083266 0.13032001 0.63800001 4283381306
-0.033929795 0.14457566 0.6352244 4288908429
-0.025219731 0.14528459 0.6340937 4287593080
-0.017776046 0.14326194 0.63657153 4285750615
-0.031864498 0.15130858 0.6376667 4289960857
-0.026417598 0.15156412 0.63728577 4289500816
0.08497487 0.15910561 0.63770002 4287263338
0.090049446 0.15940429 0.63800001 4287197802
0.10459159 0.15940429 0.63800001 4287592562
0.1152051 0.15879452 0.63655567 4287461232
0.12445297 0.15867342 0.63731253 4287592307
0.13597062 0.15876794 0.63652384 4288052598
0.1451389 0.15842889 0.63693345 4288118908
0.15428241 0.15874289 0.63625014 4288053372
0.16541919 0.15891537 0.63682616 4288119423
0.17433253 0.1582914 0.63634372 4288382085
0.18496552 0.15850458 0.6360305 4288777868
0.19515841 0.15834495 0.63623673 4288778126
0.20544574 0.15790838 0.63540006 4288382340
0.21494064 0.15704037 0.63479376 4288251266
0.22494072 0.15749054 0.63581491 4288184707
0.23515935 0.1576321 0.6353159 4288185476
0.24517518 0.15787666 0.63477361 4288185991
0.25490898 0.15745112 0.63440388 4288054665
0.26539946 0.15742813 0.63523412 4288186505
0.27487212 0.15730865 0.63584334 4288187018
0.28484511 0.15729842 0.63520688 4287923337
0.29480377 0.15731676 0.63550025 4287726981
0.30503696 0.15731032 0.63601959 4287530632
0.31476757 0.15771233 0.6355384 4287332479
0.32436743 0.15762898 0.63569039 4287003000
-0.20519787 0.16941291 0.63777781 4290226858
-0.19443423 0.16898471 0.6374616 4290357159
-0.18814634 0.16914196 0.63760006 4290356904
-0.17358282 0.16840447 0.63752633 4290817200
-0.16498083 0.16898949 0.63717651 4290949038
-0.15521699 0.16846369 0.63651621 4290883250
-0.14487866 0.16860719 0.63643336 4291016112
-0.13449614 0.1688242 0.63586217 4291278259
-0.12485345 0.16841702 0.63540554 4291409589
