# .PCD v0.7 - Point Cloud Data file format
VERSION 0.7
FIELDS x y z rgb
SIZE 4 4 4 4
TYPE F F F U
COUNT 1 1 1 1
WIDTH 1089
HEIGHT 1
VIEWPOINT 0 0 0 1 0 0 0
POINTS 1089
DATA ascii
0.12559837 -0.17563742 1.1647779 4280886858
0.13483681 -0.17518502 1.1672859 4281741387
-0.5145787 -0.16287732 1.1662307 4285298587
-0.50564349 -0.16270073 1.166 4286880463
-0.49524507 -0.16390355 1.1660668 4286683862
-0.48419264 -0.16453335 1.1647334 4286881757
-0.47456199 -0.16400728 1.1653076 4287013605
-0.46456382 -0.1652514 1.1649998 4287539946
-0.4550032 -0.16522257 1.1625555 4288066038
-0.44452792 -0.16537634 1.163 4286224351
-0.43473396 -0.1648829 1.1625555 4285698264
-0.42493883 -0.16508707 1.1623999 4287538411
-0.41483954 -0.16519785 1.1620525 4288526074
-0.40495703 -0.1662959 1.1627144 4288526078
-0.39575961 -0.16653103 1.1630001 4288525053
-0.38495019 -0.16769582 1.1616668 4287536868
-0.37569308 -0.16706491 1.1627779 4284971177
-0.36540768 -0.16727637 1.1628183 4285957301
-0.35474664 -0.16672811 1.1647145 4288918520
-0.34511197 -0.16683872 1.1627779 4288722430
-0.33485949 -0.16793865 1.161 4288986111
-0.3243421 -0.16827792 1.1610001 4288722942
-0.31450328 -0.16793863 1.1610001 4288919295
-0.30455136 -0.16816483 1.1610001 4288787967
-0.29414707 -0.16895647 1.1610001 4289116671
-0.28464749 -0.16861719 1.1610001 4289445631
-0.27582648 -0.16895647 1.1610001 4289510911
-0.26564839 -0.16830878 1.1610001 4289577215
-0.25592268 -0.16906956 1.1610001 4289380351
-0.24393512 -0.16997427 1.161 4289577983
-0.23104286 -0.16997427 1.161 4289313535
-0.22330752 -0.16875289 1.161 4290037247
-0.2143878 -0.16719843 1.1610001 4286619628
-0.20712434 -0.16946536 1.161 4284714977
-0.18829484 -0.16997427 1.161 4289840127
0.12858333 -0.16929573 1.161 4281937484
0.13395393 -0.16553132 1.165 4282134851
-0.52254361 -0.1569463 1.161 4284310409
-0.5153681 -0.15624075 1.1618001 4287009984
-0.50646228 -0.15694629 1.1610001 4286486218
-0.49618235 -0.15826945 1.1610001 4286553558
-0.48854879 -0.15979616 1.161 4286947548
-0.47124603 -0.15979616 1.161 4287342823
-0.46446061 -0.15945689 1.1610001 4287408110
-0.45641509 -0.15892376 1.1610001 4287934707
-0.4366405 -0.15979616 1.161 4288789246
-0.41628429 -0.15979616 1.161 4285698520
0.12912194 -0.15278144 1.1634001 4282068805
0.13197602 -0.15549904 1.1670001 4281806656
0.12590711 -0.14513668 1.1635715 4282396998
0.13066497 -0.14706215 1.169 4282002492
0.12530333 -0.1353626 1.1647142 4282331457
0.12322054 -0.12500259 1.1639999 4282265148
0.11888126 -0.11446256 1.1623334 4282068276
0.12215648 -0.11635267 1.1676668 4281936690
-0.55470645 -0.10585224 1.161 4284504411
0.11804501 -0.10488839 1.1641111 4281869872
0.12195398 -0.10863127 1.169 4281803823
-0.5516057 -0.092724741 1.1623335 4284766811
-0.54532743 -0.092244804 1.1614001 4284701279
-0.53842151 -0.09058509 1.161 4284832606
0.11487258 -0.094934136 1.166 4281869358
-0.55237979 -0.088476419 1.169 4284767066
-0.54377526 -0.086591579 1.1666666 4284701533
-0.5354743 -0.084008165 1.163 4284702297
-0.52824336 -0.080406986 1.161 4284833377
0.10898072 -0.084533632 1.1618 4281344299
0.11309215 -0.085910693 1.1679091 4281213225
-0.53279364 -0.077165075 1.1674001 4284833118
-0.5249334 -0.074336678 1.164077 4284964450
-0.51806527 -0.072264507 1.161 4285293669
0.10772393 -0.073995225 1.1658 4280687392
0.11170574 -0.078911394 1.169 4281277988
-0.52312917 -0.066155605 1.1670001 4285162079
-0.51597708 -0.063760623 1.1637499 4284505181
-0.50759703 -0.061857816 1.1615001 4282067250
0.10400817 -0.063832872 1.165 4279962641
-0.51347834 -0.056043919 1.1684287 4284045144
-0.50586641 -0.054511659 1.1644667 4282659657
-0.4987269 -0.052926119 1.161 4283445825
0.097805314 -0.052323848 1.1638572 4279830034
0.1024783 -0.055019774 1.1666 4279764748
-0.50335103 -0.046719026 1.1669999 4283187022
-0.49597532 -0.045640804 1.1635001 4283513420
-0.48753098 -0.042748019 1.161 4283642956
0.095571734 -0.045600295 1.1653636 4279961879
-0.49328873 -0.037192002 1.1676667 4284765784
-0.48534644 -0.035711013 1.1640002 4284370002
-0.47735289 -0.032569923 1.161 4283846227
0.093676217 -0.037131805 1.1656667 4280160532
-0.48195153 -0.028059822 1.1682 4286079849
-0.47481012 -0.025680304 1.1660001 4286278250
-0.46653229 -0.023420151 1.1615715 4286147439
0.092125565 -0.027167026 1.1650002 4280750359
0.59747201 -0.021521291 1.169 4282595131
0.60259616 -0.021521291 1.169 4282201402
0.62206775 -0.021521291 1.169 4281873204
-0.47162372 -0.015372351 1.169 4286738544
-0.46526802 -0.015203152 1.1650002 4286869106
-0.45750558 -0.012722624 1.161 4286804090
0.086134553 -0.01464121 1.1650001 4280949275
0.32281935 -0.011273056 1.169 4285093203
0.36586195 -0.011273056 1.169 4284566606
0.37508532 -0.011273056 1.169 4284501323
0.3822591 -0.011273056 1.169 4284304718
0.39250734 -0.011273056 1.169 4284436556
0.40626925 -0.012151477 1.169 4278190083
0.41511595 -0.013431928 1.1678236 4283187001
0.42571604 -0.01262283 1.1673332 4283844420
0.43601584 -0.012283416 1.1675 4283713094
0.44502953 -0.012041674 1.169 4283844168
0.45476148 -0.011949844 1.1683334 4283515456
0.46517998 -0.0133029 1.1671178 4283382586
0.47470385 -0.014326291 1.1670002 4283382073
0.48450068 -0.013564006 1.1675 4283119931
0.49567461 -0.013764935 1.1676668 4282856754
0.50547653 -0.014221043 1.1659093 4282922035
0.5153532 -0.014252589 1.1657058 4282725683
0.52521271 -0.013287636 1.1655713 4282856251
0.53489518 -0.013840286 1.1663334 4282725177
0.54436564 -0.014217879 1.1674446 4282594615
0.55474204 -0.014804587 1.1680911 4282594361
0.56443375 -0.015271891 1.1667781 4282397492
0.57467651 -0.014763023 1.1667145 4282333242
0.58519429 -0.014326483 1.1670003 4282333498
0.59558845 -0.015185795 1.1669202 4282332478
0.60534823 -0.014633934 1.1670002 4282069819
0.61627877 -0.014010271 1.1662003 4282004282
0.62177932 -0.017402273 1.1675001 4282004537
-0.46219531 -0.0076861745 1.169 4286936440
-0.4543497 -0.0060551362 1.1649998 4287133307
-0.44631225 -0.0022398834 1.1618 4287198844
0.077623576 -0.0020461399 1.165 4281277984
0.081985861 -0.0081985863 1.169 4281211935
0.13220221 -0.0010248233 1.169 4285748037
0.14347526 -0.0010248233 1.169 4285747534
0.15372351 -0.0010248233 1.169 4285879123
0.16602138 -0.0010248233 1.169 4286142806
0.17556013 -0.0027591398 1.1689999 4286339924
0.18583463 -0.001366431 1.169 4286076749
0.19589379 -0.0019353878 1.1685556 4285683020
0.20514244 -0.0019338293 1.1667778 4285617486
0.21404287 -0.0014340513 1.1682 4286275164
0.22033702 -0.0010248233 1.169 4286473307
0.23614858 -0.0019032434 1.169 4286209887
0.24534129 -0.0027588706 1.1686922 4286013023
0.25531819 -0.0027577914 1.1674615 4286012251
0.2647092 -0.0025605971 1.1673334 4285946462
0.27543506 -0.00232755 1.1671818 4285552989
0.2853311 -0.003208542 1.1671333 4285618006
0.29438975 -0.0040942077 1.1660001 4285486420
0.30487424 -0.0049492209 1.1670002 4285289558
0.31518662 -0.0051207435 1.167308 4285158227
0.32542762 -0.0051178043 1.1666003 4285026381
0.33496565 -0.0050184773 1.1674001 4284895310
0.34489274 -0.0040968386 1.1674002 4284829520
0.35524535 -0.0044052489 1.1660439 4284566860
0.36496657 -0.0051117735 1.1648402 4284566859
0.37502244 -0.0048477761 1.1653481 4284369995
0.38498828 -0.0057681473 1.166273 4284368974
0.39527342 -0.0052825008 1.1648335 4281740594
0.40506998 -0.006472013 1.1650003 4278190090
0.41497451 -0.0068888478 1.1637501 4282726191
0.42378017 -0.0080383513 1.1623334 4283975239
0.43582821 -0.0077198022 1.1627144 4283712581
0.44423071 -0.0078251269 1.164 4283646018
0.45474237 -0.0077650417 1.1628463 4283448125
0.46505851 -0.0078706332 1.1617274 4283448123
0.47454026 -0.007497652 1.1613637 4283381818
0.48459065 -0.0084087672 1.1625001 4282988347
0.49539104 -0.0079833642 1.1623334 4282922805
0.50340879 -0.0083460417 1.161 4282857267
0.5185743 -0.0085027898 1.1636667 4282921273
0.52493548 -0.0083969319 1.1610001 4282986290
0.53435034 -0.0081424788 1.1610001 4282724657
0.54534262 -0.0087531656 1.161 4282396721
0.5549289 -0.0081503689 1.1620001 4282529592
0.56426287 -0.008349197 1.1614001 4282727482
0.57506263 -0.0091602895 1.161 4282595901
0.5858224 -0.0085786832 1.1610001 4282333246
0.59474033 -0.008821019 1.1610001 4282201400
0.60585141 -0.0078880265 1.1610001 4282135609
0.61430705 -0.0076855766 1.1617274 4282069816
-0.45194709 0.0010248233 1.169 4287198845
-0.44484276 0.0049952981 1.1661766 4287264124
-0.4361271 0.0079452302 1.1618 4287396220
0.075835839 0.0059976047 1.1650001 4282130211
0.084943548 0.0061373683 1.1674001 4282919463
0.095194802 0.0061385953 1.1676002 4283511088
0.10538376 0.005467922 1.1670872 4284301109
0.11538073 0.0062959893 1.1668949 4285025096
0.12564626 0.0057871258 1.1661428 4285484876
0.13525748 0.0050238394 1.1654617 4285682507
0.14502569 0.0050070416 1.1650001 4286010957
0.15468287 0.0043239286 1.1655715 4286208337
0.16520679 0.0043224245 1.1650003 4286274393
0.17499846 0.0046340595 1.1642728 4286208857
0.18467949 0.0050966237 1.16388 4286076755
0.1948702 0.0040782536 1.1638001 4285945681
0.20433971 0.003438835 1.1632502 4286077526
0.21548666 0.0033509959 1.1641428 4286407007
0.22507991 0.0030604431 1.1652668 4286275940
0.23473592 0.0020391268 1.1642001 4286275164
0.24511799 0.0023147988 1.1628183 4286078043
0.2548891 0.0020373731 1.163 4286012249
0.2643221 0.0015999166 1.1615715 4285749593
0.27495348 0.0025456941 1.1623335 4285618259
0.2841154 0.0013588333 1.163 4285617490
0.29414707 0.00101781 1.161 4285683285
0.30432519 0.00101781 1.161 4285222992
0.31450328 0.00101781 1.161 4285026126
0.3246814 0.00101781 1.161 4284961101
0.33548093 0.0018912202 1.1621429 4284895567
0.34501955 0.0019446857 1.1628182 4284895055
0.35318005 0.00101781 1.161 4284763467
0.36471525 0.00101781 1.161 4284763725
0.37455407 0.00101781 1.161 4284303431
0.39694589 0.00101781 1.161 4281150261
-0.53393292 0.019471643 1.169 4285491050
-0.50261432 0.019449435 1.1676668 4286343788
-0.49470735 0.019118933 1.1683334 4286409584
-0.48884073 0.019471643 1.169 4286540910
-0.46117049 0.019471643 1.169 4287067256
-0.45370662 0.017855264 1.1676667 4287133051
-0.44514191 0.01552109 1.1675003 4287198842
-0.43448615 0.015300115 1.1634002 4287264634
-0.42733479 0.01730277 1.1610001 4287330172
0.068193272 0.01221372 1.161 4282130207
0.074349917 0.012222135 1.1618001 4282458916
0.084817499 0.01153518 1.1610001 4283181867
0.094656326 0.01119591 1.161 4283840567
0.10483443 0.011959268 1.1610001 4284565314
0.11501253 0.01119591 1.161 4285222729
0.12111939 0.01119591 1.161 4285354312
0.13943997 0.01119591 1.161 4285880407
0.14452901 0.01119591 1.161 4286208594
0.18218799 0.01119591 1.161 4286011211
-0.65200299 0.027945213 1.1663333 4284308320
-0.6443935 0.027946446 1.1674614 4284374368
-0.63468015 0.028369332 1.1671818 4284571487
-0.62459773 0.027465528 1.1676666 4284768352
-0.61528546 0.026779637 1.1671177 4284637280
-0.6054579 0.02604931 1.1665241 4284900194
-0.59542716 0.025715096 1.1646192 4284965985
-0.58522016 0.027004421 1.1637369 4285031521
-0.57486308 0.02710329 1.1668003 4285228646
-0.56436872 0.026779637 1.1671178 4285359975
-0.55498028 0.027931882 1.1668462 4285491302
-0.54385537 0.02600573 1.1661114 4285622374
-0.53430742 0.026213065 1.165167 4285491306
-0.524872 0.026896775 1.1652668 4285688174
-0.51508826 0.026943801 1.1655002 4285950568
-0.50546396 0.025931096 1.1648003 4286081644
-0.49557361 0.025313212 1.1632608 4286212976
-0.48531309 0.025145359 1.1654617 4286409840
-0.47483295 0.025425462 1.1648096 4286673013
-0.46489394 0.024809571 1.1632226 4286870133
-0.45425436 0.024914151 1.1622727 4286869623
-0.44464302 0.02549232 1.1633077 4287066999
-0.4343909 0.025740843 1.161909 4287067508
-0.42707306 0.024834564 1.1610001 4287133045
-0.6435715 0.033012096 1.1628463 4284505951
-0.63407761 0.034342244 1.163667 4284637282
-0.62525213 0.03479654 1.1632502 4284703327
-0.61611301 0.033621177 1.1622308 4284768610
-0.60542655 0.033072092 1.1624546 4284900451
-0.59582984 0.032998785 1.1618001 4285032033
-0.58478844 0.032683007 1.1610001 4285097572
-0.57505244 0.033096943 1.1616668 4285294439
-0.56453735 0.033087883 1.1613334 4285425513
-0.55521542 0.033078823 1.1610001 4285425509
-0.54452842 0.032315467 1.1610001 4285752676
-0.53453511 0.032580789 1.1614001 4285359461
-0.52586848 0.032230649 1.1610001 4285294698
-0.51806527 0.03155211 1.161 4285622379
-0.50463021 0.031959232 1.161 4285819758
-0.49974471 0.03155211 1.161 4285951090
-0.48142412 0.03155211 1.161 4286344562
-0.4783707 0.03155211 1.161 4286606707
-0.45088983 0.03155211 1.161 4286935670
-0.44478297 0.03155211 1.161 4287066229
-0.43765831 0.03155211 1.161 4287131766
-0.11247019 -0.19088978 1.177 4289838847
-0.10731101 -0.19088978 1.177 4289839871
-0.094928972 -0.19088978 1.177 4286289128
-0.054687344 -0.19088978 1.177 4288656377
-0.044111017 -0.19166365 1.177 4289707775
-0.035701551 -0.19130251 1.177 4289247741
-0.025795916 -0.19088978 1.177 4288654583
-0.018573061 -0.19088978 1.177 4289574654
-0.42305303 -0.18057142 1.177 4288198141
-0.41479832 -0.18057142 1.177 4288328703
-0.39209795 -0.18057142 1.177 4288132091
-0.38487506 -0.18098417 1.177 4288065529
-0.37868404 -0.18057142 1.177 4288851958
-0.35288814 -0.18057142 1.177 4286614207
-0.34566528 -0.18222234 1.177 4288391394
-0.33534691 -0.18160325 1.177 4288854015
-0.32525784 -0.1817179 1.177 4288788479
-0.3147102 -0.18263508 1.177 4288788223
-0.30450556 -0.18357471 1.1756667 4288657151
-0.29480845 -0.18356296 1.1750001 4288985087
-0.28557533 -0.18402767 1.1760001 4289380351
-0.27531523 -0.18354277 1.1762002 4289248767
-0.26499909 -0.18484969 1.1746668 4288656638
-0.25425929 -0.18557496 1.176 4288920063
-0.2444665 -0.18621944 1.176 4289708287
-0.2347872 -0.18488032 1.1752223 4289774079
-0.22486575 -0.18415645 1.1745387 4289970943
-0.21546286 -0.18426634 1.1742309 4289773823
-0.2048334 -0.18533573 1.1762729 4289641724
-0.19455203 -0.18476276 1.17575 4286289628
-0.18487683 -0.18568249 1.1752224 4290234111
-0.17516237 -0.18546963 1.1753335 4289247999
-0.16535345 -0.18526724 1.174778 4289050623
-0.15516926 -0.18656929 1.1757693 4289181950
-0.1454321 -0.18626952 1.1755002 4288655095
-0.13547015 -0.1868374 1.1754616 4289773567
-0.12464008 -0.1874769 1.1750002 4288194036
-0.11394762 -0.18716727 1.1748184 4289838846
-0.10421 -0.18637379 1.1754 4289839102
-0.095480144 -0.18596102 1.1747144 4288787707
-0.085109755 -0.18716727 1.1748184 4287603952
-0.07538005 -0.18668517 1.1755714 4289707519
-0.066211782 -0.18755625 1.1755 4289839359
-0.055187043 -0.1881844 1.1730001 4289247484
-0.043189857 -0.1881844 1.1730001 4289773311
-0.034572102 -0.18757798 1.1747143 4289641215
-0.025748098 -0.18716727 1.1748183 4289378302
-0.014715225 -0.18556465 1.1750001 4289509887
-0.0051504164 -0.1874769 1.1750002 4289378047
0.0051504169 -0.1874769 1.1750001 4289180927
0.015618256 -0.18656589 1.1746668 4289378559
0.025285969 -0.18683742 1.1754616 4288983807
0.034335528 -0.18644625 1.1750001 4288656382
0.045237828 -0.1868504 1.175182 4286685935
0.054459285 -0.18590428 1.1752859 4285502691
0.063886903 -0.18424344 1.1754 4286225128
0.074981786 -0.18533699 1.1752224 4288720375
0.085693151 -0.18598497 1.1753334 4288457201
0.094965063 -0.18615694 1.1753335 4288456686
0.10455604 -0.18609461 1.1756667 4288324840
0.11516191 -0.18521109 1.1750002 4282074488
0.12480776 -0.18398374 1.1748183 4280887377
0.13476397 -0.18594766 1.1748463 4280953160
0.14204951 -0.18263508 1.177 4282332232
-0.52107751 -0.17334855 1.177 4284638070
-0.51901382 -0.17334855 1.177 4284309871
-0.50405222 -0.17076896 1.177 4286747075
-0.49407783 -0.17317659 1.177 4287143126
-0.48565114 -0.17162883 1.177 4287079136
-0.47567669 -0.17149125 1.177 4287277031
-0.46503925 -0.17385054 1.1762002 4286355666
-0.454265 -0.17588893 1.1750001 4286419664
-0.44542101 -0.17732406 1.1752224 4288131312
-0.4338496 -0.17750901 1.1755002 4288263416
-0.42488539 -0.17702815 1.1747779 4288197886
-0.41550365 -0.17702812 1.174778 4288590847
-0.40344816 -0.17649701 1.1746 4288525311
-0.39538497 -0.17710026 1.1745001 4288460542
-0.38555002 -0.17713799 1.1742309 4287998965
-0.37486881 -0.1770297 1.1754001 4284774055
-0.36430499 -0.17580324 1.1750002 4285561514
-0.35595757 -0.17643629 1.173889 4286482622
-0.34397638 -0.17995775 1.1730001 4288063980
-0.33343598 -0.17712983 1.1730002 4288788479
-0.32495227 -0.17841525 1.1730001 4288986111
-0.31569728 -0.17913508 1.1730001 4288525054
-0.30644235 -0.17995775 1.1730001 4288524798
-0.28279075 -0.17995775 1.1730001 4289117439
-0.27620944 -0.17913508 1.1730001 4289315583
-0.23343091 -0.17995775 1.1730001 4289904383
-0.22931759 -0.17995775 1.1730001 4289577215
0.14201193 -0.17565234 1.1747779 4282331976
-0.53139585 -0.16406202 1.177 4282336104
-0.52615702 -0.16473661 1.1756668 4282337897
-0.51564646 -0.16845037 1.1747144 4283324543
-0.50637054 -0.16724652 1.174 4287340501
-0.49394119 -0.1689889 1.1730001 4286749662
-0.48502898 -0.1689889 1.1730001 4287013599
-0.47611678 -0.1689889 1.1730001 4287408359
-0.4699468 -0.16967446 1.1730001 4288066030
0.13818984 -0.16454875 1.1746 4282266684
0.14112142 -0.16893192 1.1750001 4282528071
0.13549773 -0.15550478 1.1747143 4281871935
0.13366522 -0.1446446 1.1743335 4281936691
0.12876041 -0.1318489 1.1750001 4282134328
0.13200088 -0.13715537 1.1763334 4281740339
0.12698358 -0.12451559 1.1738001 4282133815
0.12557307 -0.11525735 1.1765001 4281608497
0.12265062 -0.1037535 1.1756668 4281541169
0.11825795 -0.091521367 1.1730001 4281737769
0.1208637 -0.096138187 1.1750001 4281475888
-0.5518114 -0.083389409 1.1743335 4284897881
-0.54604322 -0.082413301 1.1730002 4284898140
0.11684651 -0.084805354 1.1735716 4281147429
0.12072489 -0.08873795 1.177 4281081892
-0.55207956 -0.077837914 1.1760001 4284767326
-0.54537606 -0.077148862 1.1760001 4284832864
-0.53669316 -0.074142911 1.1746668 4285029986
-0.52958995 -0.07095477 1.1730001 4284964193
0.11365428 -0.075023524 1.1750001 4280291863
-0.53285521 -0.068366848 1.1756667 4285161825
-0.52778578 -0.064089067 1.1754 4285161823
0.10815875 -0.063861653 1.1750001 4279634448
0.11040653 -0.067069381 1.177 4279700752
-0.52278554 -0.056298304 1.1762002 4285096286
-0.51669306 -0.053188436 1.1743335 4284702048
0.10620694 -0.054648768 1.1762002 4279961873
-0.51238716 -0.046907365 1.1760001 4284570973
-0.50567526 -0.042452384 1.1747779 4284635738
0.098719679 -0.043189861 1.1730001 4280159509
0.10134822 -0.043971259 1.1756667 4280290071
-0.50207752 -0.036597766 1.1760001 4285292641
-0.49575013 -0.033656612 1.1735716 4285620322
0.096320242 -0.035305995 1.1730001 4280357656
-0.49300882 -0.028362796 1.1765001 4286079590
-0.48547 -0.024248522 1.1748183 4286343793
-0.47817343 -0.02159493 1.1730001 4286410861
0.095960811 -0.029923264 1.177 4280750360
0.44781709 -0.02166857 1.177 4283909195
0.46948567 -0.02166857 1.177 4283777604
0.47567672 -0.02166857 1.177 4283252031
0.4840166 -0.022066575 1.1762002 4282923834
0.49424976 -0.02166857 1.177 4282988096
0.5045681 -0.02166857 1.177 4282988095
0.51540238 -0.022700407 1.177 4282790965
0.5254342 -0.022585757 1.177 4282594105
0.53591865 -0.022599908 1.1766365 4282462767
0.54627454 -0.023105778 1.1766001 4282331439
0.55535042 -0.02289941 1.1766001 4282396977
0.56445777 -0.023709046 1.1757693 4282265649
0.57413095 -0.023709584 1.1757693 4282133805
0.58505142 -0.02166857 1.177 4282200623
0.59538424 -0.022662183 1.1750001 4282529340
0.60531324 -0.02387777 1.1748183 4282070586
0.61548221 -0.022681998 1.1760001 4282266169
0.6237753 -0.024155771 1.1752224 4282004276
-0.48197424 -0.018040486 1.1760001 4286607476
-0.47713488 -0.015448445 1.1750001 4286738549
0.088588923 -0.014426427 1.1750001 4281212188
0.16818938 -0.011350203 1.177 4286010709
0.17231672 -0.011350203 1.177 4285946196
0.23732242 -0.011350203 1.177 4286012519
0.24454528 -0.011350203 1.177 4286078561
0.25417578 -0.011350203 1.177 4286012767
0.26380622 -0.011350203 1.177 4286143842
0.27859589 -0.01238204 1.177 4285749848
0.28562236 -0.012374325 1.1762002 4285749596
0.29545769 -0.013057073 1.1756668 4285552730
0.30534026 -0.013084522 1.1757693 4285552218
0.31571749 -0.013755985 1.1748825 4285355092
0.32450214 -0.013145617 1.1734446 4285092948
0.33482769 -0.013236417 1.174143 4284895311
0.34519401 -0.012366611 1.1754 4284763721
0.35537595 -0.012362052 1.1750001 4284698189
0.3642883 -0.015202937 1.1755002 4284632397
0.37440521 -0.015599934 1.1756668 4284501323
0.38542199 -0.013736784 1.1750001 4284238666
0.39478555 -0.013708439 1.1748464 4282266932
0.40477732 -0.015452305 1.1748668 4278190085
0.4141582 -0.018330926 1.1746001 4282792247
0.42472345 -0.017500898 1.1742002 4283909701
0.43401766 -0.017107451 1.1754 4283647812
0.44517341 -0.016877385 1.1748463 4283778117
0.45512825 -0.016428271 1.1753531 4283712069
0.4650102 -0.018076308 1.1751819 4283580480
0.47508848 -0.01953827 1.1730001 4283054906
0.48511013 -0.018675881 1.174143 4283119931
0.49427098 -0.018742258 1.1746002 4282988347
0.50491011 -0.01953827 1.1730001 4282857016
0.51554471 -0.019551594 1.1738001 4282856245
0.52561688 -0.018417889 1.1743335 4282724922
0.53479171 -0.018867522 1.173889 4282594101
0.54480922 -0.019126939 1.1730001 4282725940
0.55324155 -0.01953827 1.1730001 4282594354
0.57792151 -0.01953827 1.1730001 4281871658
0.58509088 -0.019571584 1.1750001 4282398002
0.59195954 -0.019560479 1.1743335 4282464825
0.60877132 -0.01953827 1.1730001 4282135352
0.613913 -0.018509941 1.1730002 4282069563
0.62008297 -0.01953827 1.1730001 4282265910
-0.47292516 -0.007910748 1.177 4286870642
-0.46607223 -0.0049775676 1.1753334 4287001976
-0.45760688 -0.0017138832 1.1730001 4287198845
0.07918141 -0.0010283299 1.1730001 4281932324
0.085557498 -0.0043247724 1.1744001 4281803300
0.094846576 -0.0020627966 1.1760001 4283181612
0.10410714 -0.0020626211 1.1758001 4283642931
0.11440257 -0.0019478558 1.1756667 4284235581
0.1246811 -0.0020622704 1.1754 4284959812
0.13512214 -0.0032404105 1.1752859 4285747529
0.14484534 -0.0030916841 1.1748184 4285682764
0.15700583 -0.0028650437 1.1756668 4285814092
0.16591334 -0.0052723261 1.1746472 4286077010
0.17484225 -0.0077229957 1.1743335 4286273880
0.18467538 -0.0056666271 1.1746669 4285944912
0.19424453 -0.0061832555 1.1750002 4285615948
0.20539354 -0.0064644604 1.175182 4285879886
0.21552317 -0.0063471119 1.1751055 4286208604
0.22487572 -0.0039167716 1.1748669 4286274913
0.23438306 -0.0057605761 1.1753531 4286209891
0.24441311 -0.0076869507 1.1748464 4286144099
0.25457814 -0.0077735633 1.1748184 4286143837
0.26499906 -0.0077256262 1.1746669 4286012256
0.27514097 -0.0072061997 1.1740001 4285946720
0.28421691 -0.0080272863 1.1738002 4285684062
0.2951307 -0.0092549697 1.1730001 4285486934
0.30130067 -0.0092549697 1.1730001 4285486677
0.33832055 -0.0092549697 1.1730001 4284763970
0.34449056 -0.0092549697 1.1730001 4284763722
0.35374552 -0.0092549697 1.1730001 4284828748
-0.4617469 0.0025795917 1.177 4287133308
-0.45613593 0.0057988213 1.1755002 4287133306
-0.44938022 0.0082266396 1.1730001 4287264381
0.07918141 0.0010283299 1.1730001 4282325029
0.085351393 0.0010283299 1.1730001 4282589475
0.095634684 0.0010283299 1.1730001 4283182893
0.10180467 0.0010283299 1.1730001 4283577635
0.11414464 0.0010283299 1.1730001 4284564029
0.12185711 0.001542495 1.1730001 4284959817
-0.65544552 0.018687708 1.177 4284176986
-0.64654887 0.019192163 1.177 4284045143
-0.63561136 0.019604897 1.177 4284308317
-0.6242612 0.019604897 1.177 4284571483
-0.6139428 0.018573061 1.177 4284637279
-0.60512751 0.017881371 1.1748183 4284703074
-0.59537631 0.019291049 1.1758573 4284965473
-0.58392572 0.017916437 1.177 4285096800
-0.57526785 0.017874068 1.1763334 4285162593
-0.56565285 0.019192163 1.177 4285294178
-0.55492175 0.019192163 1.177 4285359720
-0.54563671 0.018814363 1.1760001 4285557093
-0.53480852 0.018556405 1.1760001 4285753449
-0.52520484 0.018291648 1.177 4285884779
-0.51480585 0.017379543 1.1761429 4286147437
-0.50413173 0.015457212 1.1756668 4286475632
-0.49422094 0.014596084 1.176158 4286541683
-0.48484349 0.016105426 1.1755265 4286541681
-0.47541517 0.016481332 1.1752223 4286673268
-0.46570414 0.015691869 1.1751179 4287001719
-0.45686615 0.013601094 1.1734446 4287001976
-0.44938022 0.01131163 1.1730001 4287002745
-0.65373749 0.02346462 1.1730002 4284242781
-0.64461231 0.02280692 1.1736668 4284373852
-0.63497996 0.023669124 1.1739233 4284440161
-0.62544525 0.023049321 1.1738002 4284703069
-0.61546642 0.021613341 1.174 4284637533
-0.60979968 0.02159493 1.1730001 4284834907
-0.59374827 0.021609658 1.1738001 4284899681
-0.58508742 0.02266008 1.1750001 4285162590
-0.57517922 0.021937706 1.1730002 4285163361
-0.56506729 0.022623258 1.1730002 4285294691
-0.55477017 0.023143562 1.1733335 4285491051
-0.54707158 0.02159493 1.1730001 4285491300
-0.53575993 0.02159493 1.1730001 4285688427
-0.5250088 0.02243232 1.1738002 4285885545
-0.51548612 0.022292756 1.1736668 4286016619
-0.48023009 0.02159493 1.1730001 4286542198
-0.46789014 0.02159493 1.1730001 4286935670
-0.15426879 -0.20117484 1.189 4288983030
-0.14592993 -0.20117484 1.189 4289247742
-0.11361688 -0.20117484 1.189 4287276527
-0.10527802 -0.20117483 1.189 4289904639
-0.054202549 -0.20117484 1.189 4289641215
-0.045863692 -0.20117484 1.189 4289510911
-0.03439777 -0.20117483 1.189 4287273437
-0.025016559 -0.20117484 1.189 4286417096
-0.018762421 -0.20117484 1.189 4285232815
0.016677707 -0.20117484 1.189 4284979431
0.04690605 -0.20117484 1.189 4288917759
0.055939808 -0.20152229 1.189 4288918009
0.064973563 -0.20152229 1.189 4288589048
0.075049676 -0.20117484 1.189 4288391667
0.084430888 -0.20117483 1.189 4288391407
0.094793446 -0.20103948 1.1882001 4288588529
0.1011086 -0.20117484 1.189 4288456943
-0.49137604 -0.19218725 1.1850001 4284505981
-0.48699886 -0.19147101 1.187 4282206328
-0.39713788 -0.19075127 1.189 4288001532
-0.38567197 -0.19075127 1.189 4280175788
-0.3731637 -0.19075127 1.189 4282207355
-0.36437812 -0.1916447 1.189 4284706461
-0.35492244 -0.19075127 1.189 4283723942
-0.34550574 -0.19201806 1.1878002 4283196332
-0.33507252 -0.19147274 1.1870002 4288653808
-0.32407153 -0.19226845 1.1874617 4288984830
-0.31478405 -0.1936013 1.1872858 4288985855
-0.30493149 -0.19503352 1.1871334 4289051903
-0.29508233 -0.19515873 1.1859411 4288328191
-0.28518358 -0.19426087 1.1858001 4288393980
-0.27483308 -0.19328134 1.1866001 4288656639
-0.26505703 -0.19504206 1.187 4288920575
-0.25549433 -0.1947592 1.1849999 4289117695
-0.24541232 -0.19342425 1.1862 4289314047
-0.23551264 -0.19369756 1.1866001 4289774079
-0.22530538 -0.1934021 1.1867777 4289247738
-0.21493959 -0.19518119 1.1863332 4286750184
-0.20501721 -0.1956114 1.1858419 4288787191
-0.19481613 -0.19534221 1.1851999 4289971454
-0.18517041 -0.19508159 1.1854706 4287210221
-0.17535247 -0.19421324 1.1855716 4287208419
-0.16509254 -0.19473353 1.1862501 4289050107
-0.15463576 -0.19510987 1.1838 4288984059
-0.14478692 -0.19502425 1.1821765 4288984565
-0.13545193 -0.19514477 1.1839998 4289707519
-0.12567161 -0.19422545 1.1847333 4289378558
-0.11513516 -0.19522579 1.1845 4288919804
-0.10446107 -0.19543424 1.1836667 4287867639
-0.094401024 -0.19561914 1.1847777 4289378044
-0.084845923 -0.1954162 1.1845293 4289838591
-0.0755485 -0.19497199 1.1839471 4289773055
-0.065319858 -0.19492576 1.1847777 4289181950
-0.055010892 -0.1961692 1.1839335 4288524788
-0.044806581 -0.19669871 1.1840001 4289641983
-0.033919614 -0.19611432 1.1827145 4286747608
-0.024876291 -0.19590314 1.1823334 4288390895
-0.015222441 -0.19550708 1.184111 4288653808
-0.0051898668 -0.19514513 1.1839999 4289113845
0.0051914444 -0.19517794 1.1841999 4288654067
0.015573807 -0.1952107 1.1844 4287080437
0.024922758 -0.1952271 1.1845001 4285767148
0.034655925 -0.19479777 1.1852351 4285962988
0.044645131 -0.19520965 1.1843998 4287473139
0.054966122 -0.1949777 1.1830001 4288720886
0.065393381 -0.1951423 1.1839998 4288852218
0.075810455 -0.195241 1.1846 4288588791
0.085076995 -0.19505964 1.1835001 4288194544
0.094425067 -0.19507676 1.1835999 4288391152
0.10492454 -0.19530872 1.1849998 4288259308
0.11531235 -0.19530906 1.1850001 4287535319
0.12548141 -0.19514416 1.1849998 4281482863
0.13516575 -0.19464043 1.1853077 4280559947
0.1450952 -0.19475603 1.186818 4281148999
0.15244466 -0.19309658 1.189 4282593355
-0.50415319 -0.18171751 1.189 4280894578
-0.49327162 -0.18370111 1.1838572 4282931337
-0.48562476 -0.18461816 1.1859522 4283457938
-0.47496715 -0.18067515 1.189 4283001770
-0.46367612 -0.18350241 1.1885556 4287342563
-0.45531929 -0.184782 1.1863333 4287868401
-0.44507051 -0.18373254 1.1849998 4287868918
-0.43493441 -0.18407369 1.1852857 4287934460
-0.42466623 -0.18527175 1.1847501 4288197884
-0.41482553 -0.18496342 1.1856315 4288328958
-0.40522534 -0.18491846 1.1875 4288328702
-0.39482647 -0.18548201 1.1838572 4288132090
-0.38468534 -0.18582264 1.1841429 4285632221
-0.37469113 -0.18511827 1.1855997 4282931083
-0.36456695 -0.18451659 1.1835883 4284706463
-0.35532549 -0.18516575 1.1826001 4283852961
-0.3447693 -0.18594766 1.181 4287404244
-0.33441591 -0.18636179 1.181 4288984062
-0.3250978 -0.18636179 1.1810001 4288722175
-0.31577972 -0.18677592 1.181 4288985599
-0.3054263 -0.18843247 1.181 4289051391
-0.29584935 -0.18869132 1.1810001 4289051647
-0.28494948 -0.18854752 1.1810001 4289248255
-0.27488366 -0.18843248 1.1810001 4288656126
-0.26504791 -0.18946783 1.1810001 4288853503
-0.25883585 -0.18946783 1.1810001 4289118719
-0.23502292 -0.18946783 1.1810001 4289511679
-0.2246695 -0.18946783 1.1810001 4289577727
-0.21466118 -0.18912272 1.1810001 4289378298
-0.20499799 -0.18946783 1.1810001 4284380890
-0.19671524 -0.18946783 1.1810001 4288323809
-0.17393768 -0.18946783 1.1810001 4289314047
-0.16565493 -0.18946783 1.1810001 4288919295
-0.15840752 -0.18946783 1.1810001 4289247487
-0.014494807 -0.18946783 1.1810001 4289509119
0.011388777 -0.18946783 1.1810001 4289313279
0.035546791 -0.18946783 1.1810001 4287209972
0.040378388 -0.18946783 1.1810001 4286289644
0.057979226 -0.18946783 1.1810001 4288065267
0.066003129 -0.18869132 1.1810001 4288721148
0.075925179 -0.18912272 1.1810001 4288720378
0.082827464 -0.18946783 1.1810001 4288654324
0.094216242 -0.18946783 1.1810001 4288521969
0.10353433 -0.18946783 1.1810001 4288193258
0.1149231 -0.18946783 1.1810001 4285626544
0.12450004 -0.18869132 1.1810001 4280560216
0.13873601 -0.18946783 1.1810001 4280625218
0.14592661 -0.18569507 1.1843848 4282397258
0.15218407 -0.18762419 1.189 4282266439
-0.53055954 -0.17407356 1.189 4284506487
-0.52364922 -0.17425258 1.1854445 4284112502
-0.51466215 -0.17419825 1.1845001 4282733424
-0.50437737 -0.17533457 1.1824286 4285364131
-0.49533781 -0.17793114 1.1810001 4287732937
-0.48503658 -0.17687146 1.1814705 4287407072
-0.47628352 -0.17604619 1.1828462 4286618075
-0.46522626 -0.17778973 1.1836668 4284318138
-0.45762175 -0.1791144 1.1810001 4288786935
-0.41206664 -0.1791144 1.1810001 4288657151
-0.40688992 -0.1791144 1.1810001 4288657151
-0.37375894 -0.1791144 1.1810001 4284181659
-0.36858225 -0.1791144 1.1810001 4284573590
0.14621514 -0.17497069 1.1856667 4282397003
-0.52802509 -0.16876096 1.1810001 4283980925
0.13977134 -0.16151357 1.1810001 4282070333
0.14377894 -0.1647595 1.1850002 4282397504
0.13770066 -0.15633684 1.1810001 4282199621
0.14241624 -0.1553462 1.1870002 4282396219
0.13788721 -0.14410348 1.1826001 4282002742
0.1411109 -0.1455691 1.1872857 4282002743
0.13559733 -0.13463408 1.1834615 4281674547
0.14071815 -0.13759108 1.189 4281872183
0.12941791 -0.1242412 1.1810001 4281936689
0.133798 -0.12627606 1.1859233 4281476395
0.12907676 -0.11425609 1.1832857 4281345324
0.13305841 -0.11548534 1.1867778 4280950821
0.12720728 -0.10495174 1.1831819 4281279275
0.13112846 -0.10527802 1.189 4280688933
0.12528834 -0.094695218 1.1846365 4280819492
0.11906448 -0.082827464 1.1810001 4280687387
0.12245999 -0.085448876 1.1858001 4280424474
-0.55183798 -0.073509373 1.1810001 4284898651
-0.54614359 -0.07247404 1.1810001 4285095272
0.11874077 -0.07508716 1.1855001 4279830037
-0.54409587 -0.067780584 1.1850002 4285226851
-0.53651297 -0.064982921 1.1842 4285227362
-0.52906042 -0.061085258 1.1810001 4285293409
0.11504292 -0.065189429 1.1845555 4279765778
-0.53269309 -0.055560213 1.1883334 4285358434
-0.52588207 -0.053622853 1.182 4285226850
0.10846777 -0.05397198 1.184 4280027921
0.11244944 -0.05726416 1.1876668 4280093462
-0.52401674 -0.046008341 1.1874001 4285161311
-0.51544785 -0.043604042 1.1817273 4285096543
0.10547914 -0.044640396 1.1842 4280552729
-0.520136 -0.037524842 1.189 4285359202
-0.51363796 -0.035220083 1.1867144 4285620836
-0.50490046 -0.032679502 1.1817273 4285751654
0.098607466 -0.033212516 1.1840001 4280685851
0.10189496 -0.035608664 1.1860001 4280816920
0.41500685 -0.03112179 1.189 4284106051
0.42361373 -0.031479172 1.189 4283975749
0.43445185 -0.030809449 1.1884286 4283843910
0.44587556 -0.030211397 1.1883334 4283908417
0.45550984 -0.030645285 1.189 4283711045
0.46489105 -0.030923247 1.189 4283514950
0.47433916 -0.030511634 1.1884286 4283579965
0.48574963 -0.031575199 1.1873335 4283514174
0.49527228 -0.03348143 1.1875262 4283055161
0.50423867 -0.031645559 1.1874001 4282726455
0.51552993 -0.030984689 1.188 4282857781
0.52425855 -0.031508755 1.1871819 4282791734
0.53520501 -0.031947866 1.1864288 4282594348
0.54493099 -0.032985322 1.185421 4282527792
0.55571443 -0.033053257 1.1863333 4282198828
0.56489027 -0.032048844 1.1849999 4282067752
0.57461029 -0.032232136 1.1859233 4281936169
0.58509171 -0.0325079 1.1865001 4281804839
0.59558636 -0.032814413 1.1861111 4281541926
0.60544795 -0.033099465 1.1849999 4281739309
0.61516839 -0.032946303 1.1866668 4282266170
0.62461615 -0.032631837 1.1862501 4282136122
0.63234723 -0.03227916 1.1876667 4281873206
-0.50412518 -0.026284 1.1875001 4286146155
-0.49510968 -0.023839779 1.1823335 4286410094
0.095369235 -0.024726031 1.1850002 4280817175
0.19700539 -0.021889487 1.189 4286209373
0.20430191 -0.021889489 1.189 4286340192
0.2188949 -0.021889489 1.189 4286406230
0.22555669 -0.022799665 1.1881111 4286143582
0.23374848 -0.023192436 1.189 4286012255
0.24495383 -0.021889489 1.189 4285880404
0.25607228 -0.022236943 1.189 4285749335
0.26545349 -0.022236943 1.189 4285945955
0.27518216 -0.021889489 1.189 4286077276
0.2856057 -0.022584394 1.189 4285750106
0.29539001 -0.023364203 1.1868182 4285683804
0.30519244 -0.023798997 1.1875715 4285552988
0.31521586 -0.023421757 1.1873335 4285618009
0.32536596 -0.024296299 1.1866471 4285355094
0.3353042 -0.024746547 1.1869999 4285092433
0.34418842 -0.024290388 1.1873335 4284961618
0.35471058 -0.023182653 1.1871819 4284567887
0.36523095 -0.024032831 1.1852499 4284501065
0.37416434 -0.024354799 1.1855716 4284632396
0.38485885 -0.023925982 1.1865001 4284501069
0.39537367 -0.023912949 1.1858001 4281674802
0.40593928 -0.024400778 1.185706 4278190083
0.41497716 -0.024901897 1.1833999 4283185976
0.42505008 -0.024954595 1.1833158 4283975497
0.43541807 -0.025094772 1.1847894 4283843910
0.44497213 -0.025072066 1.1837367 4283712322
0.45508501 -0.024835814 1.1831176 4283647045
0.46469659 -0.024897862 1.1832001 4283580741
0.47518885 -0.025940569 1.1835001 4283449155
0.48556927 -0.026065303 1.1824285 4283185979
0.49513924 -0.02607928 1.1825386 4283119414
0.50423139 -0.025760176 1.1825386 4283053623
0.51407695 -0.026084093 1.183286 4282922291
0.52513927 -0.026785819 1.1826667 4282725685
0.53527254 -0.026918923 1.181 4282659373
0.54516578 -0.027033964 1.1810001 4282330670
0.55479616 -0.027066831 1.1810001 4282199343
0.56452096 -0.026660088 1.1810001 4282199853
0.57461554 -0.027954269 1.1810001 4282002475
0.58512193 -0.025890866 1.1813077 4281936681
0.59482884 -0.026542565 1.181923 4281936427
0.60498554 -0.027609155 1.1810001 4282135608
0.61525387 -0.026930761 1.1815001 4282070587
0.62353551 -0.027177762 1.1810001 4282070072
0.6305241 -0.027954269 1.1810001 4282005041
-0.49409664 -0.016565414 1.1879092 4286672754
-0.4856782 -0.015020076 1.1816667 4286738038
0.0939188 -0.014621512 1.1864117 4281802015
0.10553862 -0.012247691 1.189 4283117103
0.11632928 -0.011806946 1.1883334 4283907387
0.12585995 -0.012223583 1.1865001 4284434242
0.1348249 -0.013524741 1.1865387 4284828488
0.14408381 -0.013005789 1.1866667 4285223755
0.15570004 -0.01392092 1.187 4285879886
0.16534764 -0.015407098 1.1855453 4285748305
0.1752255 -0.01469356 1.1847144 4285814865
0.1851728 -0.014029738 1.1849999 4286076752
0.19479902 -0.015500139 1.1843845 4286076752
0.20495409 -0.015853753 1.1846522 4286275417
0.21483785 -0.01557391 1.1838797 4286209623
0.22512606 -0.015565915 1.1833998 4286078301
0.23494874 -0.015748836 1.1829997 4286012254
0.24513465 -0.016348958 1.1845787 4286012507
0.25515309 -0.016146686 1.1844544 4285946976
0.26508358 -0.016513335 1.1844 4286012768
0.27464867 -0.015841709 1.1837825 4285881436
0.28504089 -0.017623046 1.1823334 4285815386
0.29471996 -0.018129613 1.1816667 4285618269
0.30507925 -0.018129615 1.1816667 4285553244
0.31474659 -0.018528545 1.1814445 4285486675
0.32574743 -0.018040925 1.1825999 4285158230
0.33455718 -0.018156206 1.1833335 4285092437
0.34512758 -0.017621337 1.1822309 4284895309
0.3550339 -0.017746912 1.182 4284566603
0.36547619 -0.019671524 1.1810001 4284762953
0.37707204 -0.019257385 1.1810001 4284632651
0.38514769 -0.01863618 1.1810001 4284369992
0.39446583 -0.018636182 1.181 4282266679
0.40334019 -0.018784087 1.1810001 4278190094
0.42966747 -0.019671524 1.1810001 4283843915
0.43277353 -0.019671524 1.1810001 4283844166
0.44167748 -0.018843248 1.1810001 4283582531
0.45555109 -0.019671524 1.1810001 4283777604
0.46693984 -0.01863618 1.1810001 4283712065
-0.48497507 -0.0056509934 1.1878573 4286804597
-0.47579893 -0.0041446295 1.1824286 4286870650
-0.4679752 -0.0010353433 1.1810001 4287133310
0.094604231 -0.0074043269 1.1821429 4282525481
0.10482987 -0.0072682099 1.1839335 4283380529
0.11511641 -0.0070030326 1.183 4284038458
0.12536 -0.0072537153 1.1818001 4284631108
0.13562997 -0.0082827462 1.181 4285157195
0.14551371 -0.0079508787 1.1827779 4285617744
0.15402478 -0.0071194102 1.1823332 4285682764
0.16213477 -0.0084898155 1.1810001 4285682505
0.18636179 -0.00931809 1.1810001 4285879107
0.19637012 -0.00931809 1.1810001 4285681997
0.20499799 -0.00931809 1.1810001 4286143571
0.22632606 -0.0089039523 1.1810001 4286077532
0.23157179 -0.0086278617 1.1810001 4286077796
0.2722953 -0.0082827471 1.1810001 4286012256
-0.66606593 0.0093812095 1.189 4284242775
-0.62228692 0.0093812095 1.189 4284439642
-0.61473048 0.0083349077 1.1885 4284505436
-0.60540617 0.0083356965 1.1886001 4284439902
-0.59498149 0.0082125161 1.1876667 4284834402
-0.58483654 0.0086652655 1.1863333 4285096801
-0.55140668 0.0093812095 1.189 4285425509
-0.54463136 0.0088600311 1.189 4285490794
-0.5346396 0.0080430973 1.1875457 4285687908
-0.52568716 0.0080488361 1.1882728 4285951081
-0.51419258 0.0079843877 1.1881112 4286147947
-0.50477439 0.0066803256 1.1861429 4286344818
-0.49513429 0.0056281537 1.1856315 4286541938
-0.48568952 0.0055362959 1.1854998 4286739063
-0.47535247 0.0053819395 1.1832857 4286936439
-0.4666504 0.0058253403 1.18125 4287067768
-0.66243768 0.012810146 1.1850001 4284308315
-0.65594494 0.014537138 1.1847144 4284242780
-0.64552724 0.017028373 1.1846 4284241750
-0.63417679 0.016270176 1.1849999 4284373334
-0.62423325 0.015239744 1.1843685 4284439388
-0.61482412 0.013483718 1.1833333 4284570971
-0.60495776 0.013359758 1.1847333 4284768356
-0.59543061 0.014768984 1.1824999 4284834401
-0.58565921 0.013114349 1.181 4285031265
-0.57447785 0.013270689 1.1849999 4285358946
-0.56491935 0.01510857 1.1845554 4285359716
-0.55530286 0.01398629 1.1847646 4285359721
-0.54507351 0.014036662 1.1833999 4285491308
-0.53492582 0.01374584 1.1820667 4285752937
-0.52496302 0.013155732 1.1825385 4285885035
-0.51449353 0.012547731 1.1818889 4286213483
-0.50628287 0.011388776 1.1810001 4286213999
-0.49178809 0.011388777 1.1810001 4286673264
-0.48350534 0.011388776 1.1810001 4286739571
-0.47487748 0.011733892 1.1810001 4286871156
-0.46624959 0.012079005 1.1810001 4287067510
-0.065060943 -0.21092337 1.197 4288131067
-0.059814088 -0.21092337 1.197 4289510655
-0.37462512 -0.20042965 1.197 4285824678
-0.36518076 -0.20042966 1.197 4285628337
-0.35573643 -0.20084941 1.197 4284972996
-0.34524274 -0.20147902 1.197 4283988440
-0.32355574 -0.20112924 1.197 4286088653
-0.31466106 -0.20342784 1.1969999 4288591351
-0.30495989 -0.20330706 1.1954 4289380863
-0.29489988 -0.20339358 1.1952223 4288920574
-0.2844871 -0.20423552 1.1955715 4288854526
-0.27490538 -0.20453532 1.1955715 4288854015
-0.26519489 -0.20440154 1.1956667 4289314815
-0.25525814 -0.20399946 1.1955453 4289445887
-0.24460827 -0.20369624 1.1966668 4287408111
-0.23580842 -0.20372769 1.1969999 4286024926
-0.22466058 -0.20405474 1.1970001 4288984826
-0.21488123 -0.20440151 1.1956669 4289839615
-0.20495462 -0.20447513 1.195154 4289577215
-0.19583733 -0.20317101 1.1946 4289839615
-0.18533829 -0.20404394 1.1954618 4287407087
-0.17538749 -0.20409602 1.1957692 4287603183
-0.16417751 -0.20413782 1.1950001 4286286805
-0.15425946 -0.20628645 1.1955457 4288325609
-0.14519429 -0.20529276 1.1947502 4289181438
-0.13537657 -0.204761 1.1948824 4289181949
-0.12448166 -0.20488168 1.1955884 4287999735
-0.11451583 -0.20613298 1.1952857 4289379325
-0.10532322 -0.20518003 1.1947778 4289641471
-0.095355406 -0.20418668 1.1952858 4288000249
-0.085190967 -0.20494878 1.194778 4288722684
-0.074380778 -0.20533636 1.1950002 4288853500
-0.064925931 -0.20524999 1.1945001 4288985339
-0.055761047 -0.20603487 1.1945001 4289444607
-0.044795476 -0.20616436 1.1952502 4288063730
-0.034746144 -0.20614001 1.1954615 4286417356
-0.025128774 -0.20626767 1.1943334 4285496002
-0.015714597 -0.205148 1.1951334 4285365182
-0.0052400706 -0.20431036 1.1951336 4284313779
0.0052367975 -0.20421919 1.1946 4284841926
0.015563462 -0.20474124 1.1957693 4285831399
0.025156828 -0.20440155 1.1956667 4287933427
0.034597881 -0.20444663 1.1959337 4288918268
0.045069061 -0.20543329 1.1955717 4288852219
0.055250414 -0.20663106 1.1955717 4288655350
0.064978093 -0.20594478 1.1955001 4288523510
0.074380778 -0.20533459 1.1950001 4288457459
0.084856942 -0.20533463 1.1950001 4288128235
0.095333114 -0.20533462 1.1949999 4288259565
0.10548901 -0.20434453 1.1953335 4288391150
0.11454364 -0.20453484 1.1955718 4288062437
0.12417647 -0.20382045 1.1953335 4287272145
0.13536873 -0.20357776 1.1970001 4280364885
0.14506561 -0.20425746 1.1957694 4280690250
0.15448406 -0.20423062 1.1964287 4281149242
-0.48242486 -0.19223854 1.1950001 4285693612
-0.47471884 -0.19397198 1.1970003 4287865818
-0.46499285 -0.19305806 1.1961112 4287539433
-0.45473549 -0.1925917 1.1961112 4287802352
-0.44471911 -0.19329126 1.1961112 4287999736
-0.43530664 -0.19291548 1.1952223 4288065784
-0.42444104 -0.1937369 1.1945386 4288131319
-0.41485444 -0.19486022 1.1950002 4288197372
-0.40492165 -0.19384317 1.1943334 4288197372
-0.39441165 -0.19284338 1.1947778 4286881009
-0.38429984 -0.19468473 1.1950001 4280238454
-0.37509489 -0.19503309 1.1941767 4284441998
-0.36473596 -0.19601701 1.1933635 4285101988
-0.35518566 -0.19576006 1.1932666 4284840374
-0.3450397 -0.19710691 1.1934 4283528393
-0.33534747 -0.19701925 1.1954 4284312503
-0.32496467 -0.19736937 1.193 4289113580
-0.31480485 -0.19934157 1.1930001 4289380095
-0.30486917 -0.1997599 1.1930001 4289117951
-0.29179588 -0.1997599 1.1930001 4287737079
-0.28482345 -0.19941127 1.193 4288788735
-0.27599171 -0.19859785 1.193 4288920063
-0.26774102 -0.19871403 1.1930001 4288788735
-0.25414479 -0.1997599 1.1930001 4289051135
-0.24577789 -0.19871405 1.193 4289643007
-0.23490091 -0.19850487 1.193 4288655349
-0.22532542 -0.19883025 1.193 4286158824
-0.21858543 -0.1997599 1.1930001 4289773055
-0.18198022 -0.1997599 1.1930001 4285041109
-0.17465918 -0.1997599 1.1930001 4288195572
-0.16629227 -0.1997599 1.1930001 4287735022
-0.12445774 -0.1997599 1.1930001 4289641983
-0.11818255 -0.1997599 1.1930001 4287078640
-0.066935256 -0.1997599 1.1930001 4289576703
0.032421764 -0.1997599 1.1930001 4286881774
0.13439344 -0.1997599 1.1930001 4280494159
0.14119154 -0.1997599 1.1930001 4280756300
0.15602618 -0.19676442 1.1944546 4282264640
-0.52171135 -0.18228705 1.1950001 4284769664
-0.51529253 -0.18237349 1.1942 4284046719
-0.50808036 -0.18344443 1.1930001 4282602360
-0.48207411 -0.18789783 1.1935713 4288324812
-0.47492212 -0.18620335 1.1932501 4287603676
-0.46796572 -0.18697713 1.193 4287736550
-0.4544276 -0.18930127 1.1930001 4287999474
-0.44484055 -0.18895264 1.193 4287999736
-0.43507913 -0.18930127 1.1930001 4288460027
-0.4068408 -0.18930127 1.1930001 4288328957
-0.38174012 -0.18930127 1.1930001 4278205316
0.14955845 -0.18093435 1.1930001 4282266191
0.15450238 -0.18496256 1.1944544 4282135363
-0.53129858 -0.1767509 1.1930001 4284703346
0.14886121 -0.17535643 1.1930001 4282331719
0.15192546 -0.17571118 1.197 4282331460
0.14746673 -0.1636776 1.1930001 4282200639
0.15005991 -0.16684981 1.197 4282331453
0.14736532 -0.15364753 1.1950001 4282199098
0.1453622 -0.14515021 1.1946 4281805631
0.13909982 -0.13073291 1.1930001 4281871408
0.14306061 -0.13546056 1.1955001 4281740084
0.13854861 -0.12388023 1.1950001 4281673265
0.14166495 -0.1290725 1.197 4281673527
0.13696574 -0.11460019 1.1956668 4281016100
0.13414916 -0.10543357 1.1941429 4280621856
0.12864119 -0.093081832 1.1930001 4280031004
0.13179778 -0.097186096 1.1963333 4279701532
0.12608795 -0.085105143 1.1952223 4279568663
0.12204822 -0.07490547 1.1950001 4279896085
-0.55301797 -0.064536259 1.197 4285030240
-0.54576635 -0.063611217 1.1938889 4285161314
0.12054312 -0.063937925 1.1956667 4280159507
-0.54226196 -0.056928325 1.197 4285227359
-0.53652787 -0.054175716 1.1930001 4285358431
0.10981565 -0.051247302 1.1930001 4280355089
0.11566253 -0.055306911 1.1944546 4280487190
-0.54042554 -0.047221649 1.197 4285292381
-0.53413528 -0.045844607 1.1948463 4285226847
-0.52706164 -0.042205945 1.1936666 4285423712
0.10911841 -0.045669366 1.1930001 4280684567
0.11152047 -0.04579502 1.1963334 4280816922
0.41869864 -0.040925428 1.197 4284107591
0.42289612 -0.040925428 1.197 4284041546
0.48627806 -0.041764926 1.197 4283318078
0.49408808 -0.041961126 1.1966002 4283383104
0.50428063 -0.041858204 1.197 4283120965
0.51943815 -0.040925428 1.197 4282858040
0.5267837 -0.041450113 1.197 4282725942
0.53517872 -0.040925428 1.197 4282659894
0.54462302 -0.040925428 1.197 4282528824
0.55604947 -0.042091396 1.197 4282528304
0.565144 -0.041858207 1.197 4282330675
0.57190663 -0.040925428 1.197 4282265389
0.58869654 -0.040925428 1.197 4281542443
0.59499282 -0.041525066 1.1969999 4281739045
0.60548657 -0.041974805 1.1970001 4281608233
0.61467355 -0.041957706 1.1965001 4281542438
0.62416583 -0.041961126 1.1966002 4281541673
0.63486886 -0.041974805 1.1970001 4282069555
-0.5250029 -0.034928445 1.1953334 4285423972
-0.51813626 -0.031401325 1.194 4285751907
0.10553676 -0.034879435 1.1952858 4281080347
0.22981203 -0.030431731 1.197 4286078805
0.23191077 -0.030431731 1.197 4286012256
0.24555258 -0.030431731 1.197 4286077531
0.2549969 -0.030431729 1.197 4285749076
0.26549062 -0.030431729 1.197 4285618268
0.27388558 -0.030431731 1.197 4285552211
0.28587839 -0.031331189 1.1969999 4285749341
0.29539767 -0.032005787 1.1970001 4285749595
0.30529961 -0.032523684 1.1967335 4285618271
0.31418139 -0.030851478 1.197 4285421394
0.32554638 -0.031612452 1.1953334 4285420893
0.33548841 -0.032727063 1.1945001 4285355347
0.3453041 -0.032505043 1.1960002 4285027157
0.35591134 -0.032005779 1.1970001 4284830034
0.36570367 -0.03193035 1.1959093 4284895312
0.37412974 -0.032330431 1.1966363 4284633168
0.38511878 -0.031481095 1.1970001 4284566605
0.3958326 -0.032199763 1.1966926 4281543212
0.40529516 -0.032871824 1.1950002 4278190085
0.41446909 -0.035667188 1.1946844 4282791732
0.42547402 -0.036492877 1.1941429 4283975748
0.43523076 -0.035107434 1.1953335 4283844164
0.44559461 -0.034165986 1.1954002 4283974213
0.45466343 -0.035389084 1.1950002 4283711812
0.46494493 -0.035563275 1.1954002 4283449921
0.47563663 -0.035214286 1.1948462 4283253314
0.48421624 -0.036229651 1.1943333 4283252546
0.49343324 -0.038416661 1.1935713 4283382847
0.5059489 -0.037113294 1.1943334 4282923579
0.51502383 -0.03618731 1.1953532 4282988856
0.52537996 -0.037005242 1.1954615 4282857267
0.53416073 -0.036822774 1.1943333 4282725685
0.5435518 -0.038190231 1.1934999 4282593846
0.55558562 -0.038136382 1.1941429 4282527531
