# .PCD v0.7 - Point Cloud Data file format
VERSION 0.7
FIELDS x y z rgb
SIZE 4 4 4 4
TYPE F F F U
COUNT 1 1 1 1
WIDTH 1094
HEIGHT 1
VIEWPOINT 0 0 0 1 0 0 0
POINTS 1094
DATA ascii
0.11262975 0.21775085 1.7130001 4281606701
0.24778545 0.21775085 1.7130001 4286382102
0.25229064 0.21474738 1.7130002 4286185492
0.10962629 0.22075431 1.7130001 4281737517
0.11623391 0.22435847 1.7130001 4281671470
0.12164013 0.22976469 1.7130001 4281606451
0.24649824 0.22590311 1.7130002 4286251027
0.25138959 0.22435847 1.7130001 4285988885
0.12689617 0.23502076 1.7130001 4282129968
0.13605675 0.23637231 1.7130001 4282260782
0.14266434 0.23727334 1.7130001 4282260781
0.23877507 0.23877507 1.7130001 4286513177
0.24478197 0.23577163 1.7130002 4286251799
0.2507889 0.23426989 1.7130001 4285792788
0.13494118 0.24478199 1.7130002 4281999406
0.14341521 0.24553286 1.7130001 4281802797
0.23877507 0.24478197 1.7129999 4286382104
0.24177852 0.24177852 1.7130001 4286317329
0.13665743 0.25379238 1.7130002 4282065712
0.14506711 0.25589481 1.7130001 4282261298
0.23727334 0.25529408 1.7130002 4286317079
0.1479204 0.26505533 1.7130001 4282392376
0.15167473 0.2658062 1.7129999 4282392627
0.23614705 0.26618165 1.7130002 4286382866
0.15617992 0.27331486 1.7130001 4282392623
0.16168626 0.2768189 1.7129999 4282262066
0.22976469 0.27181312 1.7130001 4286383122
0.23577163 0.27481663 1.7130002 4286317591
0.16669202 0.28532869 1.7130002 4282261037
0.17269894 0.28983387 1.7130001 4281603107
0.22876354 0.28632984 1.7130002 4286383644
0.23477048 0.28516185 1.7130002 4286318104
0.17670357 0.29483965 1.7130002 4283835447
0.18271048 0.29784313 1.7129999 4285735229
0.2264275 0.29650825 1.7130002 4286319390
0.23276815 0.29433906 1.7130001 4286188059
0.9115501 0.29884428 1.7130001 4286212463
0.18557093 0.30442211 1.7130002 4285602863
0.19071971 0.30785465 1.7130001 4286191393
0.21775085 0.30485117 1.7129999 4286320678
0.22435847 0.30455083 1.7130001 4286319648
0.89453048 0.30785465 1.7129999 4281020232
0.90734518 0.30485117 1.7130001 4280424481
0.91455352 0.30485117 1.7130002 4282462773
0.92281306 0.30560204 1.7130001 4285093204
0.18771625 0.3108581 1.7130001 4286191393
0.19409861 0.31686503 1.7130002 4286126638
0.20573701 0.31986848 1.7129999 4286920762
0.21624911 0.31686503 1.7130002 4286125868
0.22247057 0.31386158 1.7130002 4286320423
0.8174417 0.31886733 1.7129999 4286080873
0.82444978 0.31724045 1.7130002 4285685090
0.83530843 0.31640294 1.7129999 4285816162
0.845474 0.31577283 1.7130001 4285816929
0.85421127 0.31495368 1.7130001 4285817444
0.86499655 0.3141619 1.7130001 4286016111
0.87550861 0.31686503 1.7130002 4286213749
0.88451898 0.31495374 1.7130001 4286213745
0.89473069 0.31506297 1.7129998 4285753970
0.90511411 0.31300345 1.7130002 4281413700
0.9115501 0.3108581 1.7130001 4278190612
0.19732733 0.32407331 1.7130001 4286126381
0.20573699 0.3258754 1.7130002 4286789183
0.2147474 0.3258754 1.7130002 4286129468
0.22075431 0.3258754 1.7129999 4286255419
0.78690648 0.32887888 1.7130001 4286277492
0.79441518 0.32887888 1.7129999 4286145902
0.8055709 0.32759169 1.7130002 4286013800
0.81506395 0.32549995 1.7130002 4286211943
0.82384908 0.32407331 1.7130001 4286014312
0.83346015 0.32287195 1.7129999 4285685342
0.84697568 0.32287195 1.7130001 4286146664
0.86950165 0.32287195 1.7130001 4286410607
0.87250513 0.32287195 1.7130001 4286410355
0.20648788 0.3326332 1.7130001 4287052863
0.21474738 0.33488575 1.7130002 4286065464
0.76588231 0.33788925 1.7130001 4286540401
0.77489269 0.33488578 1.7130001 4286540653
0.78465396 0.3326332 1.7130001 4286474866
0.79441518 0.33188233 1.7129999 4286211949
0.80492729 0.33188233 1.7130001 4286342250
0.81243593 0.33338404 1.7130001 4286278251
0.2147474 0.3408927 1.7130001 4286460473
0.71632522 0.34990308 1.7129999 4287000180
0.73434597 0.34990308 1.7129999 4286606189
0.74550164 0.34861591 1.7130002 4286606192
0.75537014 0.34639907 1.7130002 4286606190
0.76377994 0.34209409 1.7130001 4286540402
0.68929404 0.35891348 1.7130001 4287001200
0.69590169 0.35771212 1.7130001 4287066225
0.70371068 0.35410795 1.7130001 4287001203
0.71482348 0.35290655 1.7130001 4286934388
0.7253356 0.35641059 1.7130002 4286737520
0.73391688 0.35505185 1.7130002 4286606187
0.74185461 0.35290655 1.7130001 4286671730
0.66586715 0.36672246 1.7130001 4287329653
0.67487746 0.36492038 1.7130001 4287066739
0.68462205 0.36391926 1.7130002 4287000946
0.695301 0.36191693 1.7129999 4287066225
0.72383386 0.36191693 1.7130001 4286671985
0.62471962 0.37993768 1.7130001 4287791493
0.63523179 0.37993768 1.7129999 4287659138
0.64424217 0.37993768 1.7129999 4287593084
0.65539789 0.37607607 1.7130002 4287395962
0.66226292 0.3709273 1.7130001 4287395960
0.59768856 0.38894805 1.7130001 4287130733
0.60519719 0.38819718 1.7130001 4286999404
0.61495847 0.38669547 1.7130001 4287328628
0.62381858 0.38354182 1.7130001 4287724412
0.63523179 0.38294116 1.7129999 4287724669
0.58717644 0.39645672 1.7130001 4287261807
0.5936839 0.39395383 1.7130002 4287065711
0.54813147 0.40847057 1.7130001 4283454064
0.55338746 0.40696883 1.7130001 4279966516
0.561647 0.40396535 1.7130001 4282722066
0.58417296 0.40446594 1.7130002 4287197036
0.59017986 0.40096191 1.7130001 4287131505
0.53912109 0.41898265 1.7130001 4287592560
0.5433259 0.41537851 1.7130001 4287395446
0.50608301 0.42679167 1.7130001 4288052349
0.51459283 0.42448902 1.7130002 4287855481
0.52470446 0.42619094 1.7130001 4287789173
0.53483039 0.42413145 1.7130002 4287723383
0.49406919 0.43580204 1.7130001 4288249214
0.50187814 0.43279856 1.7130001 4288183426
0.42799306 0.44901726 1.7130001 4288380534
0.45802766 0.44901726 1.7130001 4288643976
0.46403456 0.44751552 1.7130001 4288249474
0.47454667 0.4425098 1.7130002 4288249473
0.48505878 0.44000688 1.7129999 4288052606
0.49406916 0.44000688 1.7130001 4288249218
0.41898265 0.45652592 1.7130001 4288512642
0.42461413 0.45464876 1.7130002 4288446591
0.43580204 0.45562491 1.7130001 4288578437
0.44451207 0.45202073 1.7130001 4288578953
0.45502421 0.45202073 1.7129999 4288578180
0.39645672 0.46703804 1.7130001 4289038727
0.4061107 0.46403456 1.7130002 4288775813
0.41555017 0.46317643 1.7130002 4288578431
0.42498958 0.46103111 1.7129999 4288381058
0.43349943 0.46403459 1.7130002 4288775558
0.37543252 0.47755015 1.7130002 4288973197
0.38637367 0.47690654 1.7130002 4289038472
0.39428756 0.47337866 1.7130002 4288972682
0.40096191 0.47004148 1.7130001 4288841870
0.43099651 0.47004148 1.7130001 4288842120
0.33488578 0.48806223 1.7130001 4289366929
0.34689963 0.48806223 1.7129999 4289236624
0.35591003 0.48656049 1.7130002 4289170835
0.36492038 0.48468339 1.7130002 4289170577
0.37543252 0.48355708 1.7130002 4288973453
0.38394228 0.48305646 1.7129999 4289038214
0.32687655 0.49507031 1.7130002 4289103250
0.33445668 0.49321103 1.7130002 4289367952
0.34539789 0.49256742 1.7130002 4289236110
0.35590997 0.49106571 1.7129999 4289236114
0.36191693 0.49106571 1.7130001 4289236113
0.27631831 0.50908649 1.7130001 4288907653
0.28232524 0.50908649 1.7130001 4288644229
0.29884428 0.50908649 1.7130001 4288971142
0.30545187 0.5078851 1.7130001 4289037443
0.31570986 0.50469679 1.7129999 4289037190
0.32549995 0.50270408 1.7130002 4289367694
0.24778545 0.51809686 1.7130001 4289037435
0.25619513 0.51749623 1.7130001 4289102717
0.26618165 0.51546884 1.7130002 4289234310
0.27381545 0.51409221 1.7130002 4289039750
0.28632984 0.51509339 1.7130002 4288907657
0.2952401 0.5132913 1.7130001 4289102977
0.30560204 0.51284081 1.7130001 4289104008
0.3108581 0.51208991 1.7130001 4288973959
0.23637228 0.52590585 1.7130001 4288907143
0.24478197 0.52410376 1.7130002 4288971651
0.25488454 0.52383065 1.7130001 4288971647
0.26280275 0.52110028 1.7130001 4289102719
0.1847128 0.53912109 1.7130001 4289301908
0.19622605 0.53811997 1.7130002 4289301899
0.20616606 0.53697574 1.7130002 4289302157
0.2147474 0.53574216 1.7130002 4289302674
0.22514398 0.53426927 1.7129999 4289237132
0.23577161 0.5316124 1.7130002 4288776069
0.24328026 0.53011066 1.7130001 4288776066
0.17770471 0.54713029 1.7129999 4289565597
0.18471278 0.54512799 1.7130002 4289302421
0.19462422 0.54452723 1.7130001 4289236881
0.20473586 0.54412681 1.7130002 4289368207
0.11863667 0.55714184 1.7130001 4289895324
0.12614532 0.55714184 1.7130001 4289763741
0.1345121 0.55585462 1.7130002 4289566108
0.14566781 0.55714184 1.7129999 4289368467
0.15527889 0.55594045 1.7130001 4289565851
0.16631658 0.55413836 1.7130002 4289565847
0.17510173 0.55233628 1.7130001 4289433750
0.18471278 0.55113488 1.7130001 4289302419
0.07808996 0.56915569 1.7130001 4290028196
0.082595147 0.56915569 1.7130001 4289962402
0.094608985 0.56915569 1.7129999 4289961637
0.10512111 0.56840479 1.7130001 4289764514
0.11563321 0.561647 1.7130002 4289763743
0.12464359 0.561647 1.7130002 4289632667
0.13966089 0.56314874 1.7129999 4289499544
0.14523874 0.56229061 1.7130002 4289499543
0.1546782 0.561647 1.7130002 4289566359
0.16368857 0.561647 1.7130001 4289368728
0.064073808 0.57566321 1.7130002 4289698465
0.072833903 0.57290995 1.7130001 4289962405
0.087100342 0.57215911 1.7130001 4290027944
0.093107261 0.57215911 1.7130001 4289896357
0.045952938 0.58657569 1.7130001 4289302930
0.054562852 0.58317184 1.7130002 4289566107
-0.025529409 0.59919029 1.7129999 4289304217
-0.014802767 0.59575778 1.7130002 4289368982
-0.0052560549 0.59693766 1.7130001 4289434518
0.0052560549 0.5984394 1.7130001 4289434772
0.016185313 0.59685421 1.7130002 4289501082
0.025529411 0.59558612 1.7130001 4289566364
0.034110721 0.59232521 1.7130002 4289435032
0.042048439 0.59017986 1.7130001 4289368721
-0.055564005 0.60820067 1.7129999 4289303963
-0.043925602 0.60632348 1.7130002 4289434775
-0.033939097 0.6033951 1.7130001 4289369754
-0.0030034601 0.60519719 1.7130002 4289369750
0.003754325 0.60294461 1.7130001 4289370007
0.01351557 0.60219371 1.7129999 4289566363
-0.092606686 0.61620992 1.7129999 4289370264
-0.08559861 0.61370701 1.7130002 4289304473
-0.075086504 0.61570925 1.7130002 4289435289
-0.064574391 0.6157093 1.7130002 4289304218
-0.056765389 0.61300623 1.7130001 4289303704
-0.0045051901 0.61120409 1.7130001 4289303955
-0.11413148 0.62922484 1.7130001 4289502111
-0.10576469 0.62622136 1.7130002 4289304989
-0.095359847 0.62096536 1.7130001 4289304474
-0.064574391 0.62021446 1.7130001 4289303707
-0.19372316 0.63748443 1.7130001 4289502629
-0.18471278 0.63823527 1.7129999 4289568933
-0.17870587 0.63823527 1.7130001 4289503398
-0.15567935 0.63723415 1.7129999 4289503400
-0.13065051 0.63823527 1.7130001 4289371043
-0.12378545 0.63566095 1.7130002 4289305505
-0.11638407 0.63297921 1.7130001 4289370526
-0.20273355 0.64724565 1.7130001 4289568419
-0.19432387 0.64454252 1.7130001 4289502632
-0.18471278 0.64386672 1.7130002 4289437350
-0.17670356 0.64374161 1.7130002 4289503398
-0.1645467 0.64295495 1.7130002 4289437605
-0.15392733 0.64349127 1.7130001 4289503145
-0.14523874 0.64338404 1.7130002 4289437349
-0.1357993 0.64424217 1.7130002 4289305505
-0.12614532 0.64123869 1.7130001 4289305248
-0.23426989 0.65925944 1.7130001 4289042330
-0.2252595 0.65925944 1.7130001 4289042332
-0.21474738 0.65745741 1.7130001 4289174689
-0.20633769 0.65415359 1.7130001 4289372070
-0.19852871 0.65265185 1.7130001 4289502890
-0.2652055 0.66706848 1.7130001 4287991187
-0.25488451 0.6655395 1.7130001 4288450711
-0.24521105 0.66612452 1.7130002 4288647834
-0.23577163 0.66526634 1.7130002 4288910748
-0.22676122 0.66226292 1.7129999 4288976539
-0.21174394 0.66226292 1.7130001 4289503911
-0.20723873 0.66376466 1.7130001 4289372323
-0.33488575 0.67728025 1.7129999 4286412155
-0.3264761 0.67607886 1.7130001 4286607992
-0.31536329 0.67728025 1.7130001 4286937985
-0.30785465 0.67728025 1.7130001 4287070340
-0.29884428 0.67728025 1.7130001 4287267981
-0.28382698 0.67728025 1.7129999 4287728276
-0.27331486 0.67577851 1.7130001 4287990674
-0.2658062 0.67247468 1.7130001 4288121747
-0.25679582 0.67127329 1.7130001 4288450708
-0.24177852 0.67127329 1.7130001 4288648087
-0.23727334 0.67127329 1.7130001 4288779421
-0.35290655 0.6877923 1.7130001 4286082930
-0.34422991 0.68662429 1.7130002 4286280056
-0.33518612 0.68388784 1.7130001 4286346104
-0.32673353 0.68285805 1.7130002 4286477946
-0.31536329 0.68028367 1.7130001 4286937985
-0.30485117 0.68103456 1.7130001 4287070345
-0.29541177 0.68457431 1.7130002 4287597713
-0.28733101 0.68378776 1.7130002 4287729044
-0.36191693 0.69830447 1.7130001 4285819503
-0.35540947 0.695301 1.7130002 4286016881
-0.34990308 0.69229752 1.7130001 4286214259
-0.29283735 0.69229752 1.7130001 4287795092
-0.38444287 0.70581317 1.7130001 4285359463
-0.37543252 0.70731485 1.7130001 4285425257
-0.36534947 0.70345324 1.7130002 4285622125
-0.3579123 0.70230907 1.7129999 4285951088
-0.45202073 0.71932864 1.7130001 4283189581
-0.44000688 0.71932864 1.7130001 4283846481
-0.43399996 0.71752656 1.7130001 4284109646
-0.42432216 0.7159915 1.7130002 4284372567
-0.41531175 0.7159915 1.7130002 4284569950
-0.40546712 0.71482342 1.7129998 4284898912
-0.39525536 0.71572459 1.7130001 4284964961
-0.38819718 0.71257091 1.7130001 4285096548
-0.3769342 0.71031827 1.7129999 4285358952
0.23459497 -0.36200684 1.7220001 4283838257
0.2271978 -0.3540059 1.7220001 4284558393
0.23248148 -0.35777995 1.7220001 4284099385
0.19776022 -0.34268373 1.7220001 4287172656
0.20530832 -0.34419337 1.7220001 4286975548
0.21587566 -0.34721261 1.7220001 4286519362
0.16756782 -0.33060679 1.7220001 4288154170
0.17511591 -0.33211643 1.7220001 4287957313
0.18568325 -0.33765164 1.7220001 4287629629
0.19323136 -0.33966449 1.7220001 4287565369
0.11925998 -0.32154906 1.7220001 4288745539
0.12529846 -0.32305866 1.7220001 4288679494
0.13133694 -0.3245683 1.7220001 4288679746
0.14542672 -0.32658115 1.7220001 4288352321
0.15700048 -0.32607794 1.7220001 4288287047
0.16454858 -0.32658112 1.7220001 4288352584
0.089067578 -0.31249133 1.7220001 4288939843
0.095106065 -0.31249133 1.7220001 4288877126
0.10416378 -0.31400096 1.7220001 4288941377
0.11382534 -0.31792599 1.7220001 4288744519
0.12227922 -0.31852981 1.7220001 4288614723
0.049817462 -0.30041438 1.7220001 4289337175
0.055855941 -0.30041438 1.7220001 4289336404
0.06491366 -0.30444005 1.7220001 4289204054
0.073971376 -0.30645287 1.7220001 4289137475
0.083632946 -0.30886823 1.7220001 4289137733
0.036734086 -0.29236308 1.7220001 4288291928
0.043778975 -0.29538229 1.7220001 4287504981
-0.01056734 -0.28229895 1.7220001 4287968625
-0.0045288601 -0.28229895 1.7220001 4287640942
0.0045288601 -0.28229895 1.7220001 4287573608
0.014089788 -0.28481495 1.7220001 4288884070
0.02566354 -0.28733099 1.7220001 4289015138
0.031702019 -0.28833741 1.7220001 4289079649
-0.040759739 -0.27022198 1.7220001 4290058065
-0.034117412 -0.2726374 1.7220001 4289993816
-0.02566354 -0.27626047 1.7220001 4289799773
-0.015096201 -0.27927971 1.7220001 4289212008
-0.0045288601 -0.27927971 1.7220001 4288623212
-0.083029099 -0.26116425 1.7220001 4289595729
-0.073216572 -0.26191905 1.7220001 4289662025
-0.06491366 -0.26267385 1.7220001 4289794123
-0.056459792 -0.26599506 1.7220001 4289990737
-0.044785395 -0.26720273 1.7220001 4290056780
-0.10416377 -0.25311294 1.7220001 4289806207
-0.095106065 -0.2566354 1.7220001 4288096115
-0.084035516 -0.258145 1.7220001 4289267027
-0.076990619 -0.258145 1.7220001 4289399892
-0.16152933 -0.24002957 1.7220001 4290126692
-0.15549086 -0.24078438 1.7220001 4290061150
-0.14492352 -0.24002957 1.7220001 4290192744
-0.13435617 -0.24304882 1.7220001 4290061669
-0.12605327 -0.24531324 1.7220001 4289929826
-0.11775036 -0.2490873 1.7220001 4289930592
-0.19272816 -0.23197828 1.7220001 4290059359
-0.18568327 -0.23097186 1.7220001 4290454889
-0.17446892 -0.23312844 1.7220001 4290325868
-0.16530338 -0.23625554 1.7220001 4290127722
-0.15549086 -0.23701034 1.7220001 4290127196
-0.21285641 -0.22191414 1.7220001 4290984032
-0.20466134 -0.22493339 1.7220001 4290582105
-0.1962506 -0.22795261 1.7220001 4289926999
-0.18266402 -0.22795261 1.7220001 4290783339
-0.17964478 -0.22795261 1.7220001 4290326132
-0.22191414 -0.21436603 1.7220001 4287038795
-0.21549825 -0.21549824 1.7220001 4288612679
-0.20908238 -0.21663046 1.7220001 4290119751
-0.22191414 -0.20983718 1.7220001 4282980686
-0.21386282 -0.20883077 1.7220001 4283176518
-0.20719534 -0.20417608 1.7220001 4283638605
-0.20279229 -0.19574742 1.7220001 4283377232
-0.19594868 -0.19353329 1.7220001 4283246674
-0.19436356 -0.18606067 1.7220001 4283180367
-0.19272816 -0.17863835 1.7220001 4283114575
-0.18740854 -0.17446892 1.7220001 4282851660
-0.18367045 -0.16656141 1.7220001 4283115092
-0.17722939 -0.16273704 1.7220001 4284897408
-0.17322889 -0.15586826 1.7220001 4285751444
-0.17058706 -0.14945237 1.7220001 4285292437
-0.1656808 -0.1437913 1.7220001 4285225880
-0.15247162 -0.14039466 1.7220001 4285027730
0.37589538 -0.14794275 1.7220001 4284497970
-0.16273703 -0.13496003 1.7220001 4285160085
-0.15505955 -0.13349354 1.7220001 4285094037
-0.14945237 -0.13435619 1.7220001 4284962448
-0.15549086 -0.12650615 1.7220001 4285093520
-0.14681053 -0.12492106 1.7220001 4284962445
0.36583123 -0.12378884 1.7220001 4284562479
0.37589538 -0.12227922 1.7220001 4284628525
-0.14240749 -0.11724714 1.7220001 4284895627
-0.13616773 -0.11261765 1.7220001 4284764041
0.35777995 -0.1132215 1.7220001 4284758571
0.36489671 -0.1153781 1.7220001 4284759086
0.37589538 -0.11775035 1.7220001 4284759341
-0.13209175 -0.10491858 1.7220001 4284632707
-0.12756288 -0.10340896 1.7220001 4284566657
0.35657224 -0.10355993 1.7220001 4285150503
0.36079916 -0.10416379 1.7220001 4284823593
-0.12479525 -0.095106065 1.7220001 4284565375
-0.11925998 -0.092086822 1.7220001 4284172673
0.34872222 -0.093596444 1.7220001 4286518819
0.35476074 -0.09510605 1.7220001 4285345062
0.36079916 -0.098125301 1.7220001 4284889386
-0.12227922 -0.089067578 1.7220001 4284827516
-0.11865614 -0.083632946 1.7220001 4285285243
0.3463068 -0.083934881 1.7220001 4286058007
0.35448623 -0.08495044 1.7220001 4285474851
-0.1132215 -0.073216572 1.7220001 4287775861
0.33966449 -0.07095214 1.7220001 4286123300
0.34532559 -0.074348785 1.7220001 4285992220
0.35174146 -0.075480998 1.7220001 4285208858
-0.11020226 -0.067932896 1.7220001 4286856817
-0.10416379 -0.065416865 1.7220001 4286136686
-0.098125301 -0.061894421 1.7220001 4284694120
0.33890969 -0.064158849 1.7220001 4286188318
0.3426837 -0.06491366 1.7220001 4286056988
-0.10114454 -0.058875181 1.7220001 4283580775
-0.095968701 -0.055424612 1.7220001 4283580264
0.33815488 -0.055855934 1.7220001 4286253339
0.3426837 -0.055855941 1.7220001 4286253082
-0.092841633 -0.047553029 1.7220001 4283186533
-0.087256029 -0.042571284 1.7220001 4283120228
0.33724907 -0.044986676 1.7220001 4286252828
0.3426837 -0.046798218 1.7220001 4286253082
-0.082022697 -0.035727669 1.7220001 4282988895
-0.075782917 -0.034117412 1.7220001 4283053660
0.33362603 -0.035476066 1.7220001 4286252313
-0.073593974 -0.026040945 1.7220001 4282856794
-0.067932896 -0.0226443 1.7220001 4282856795
0.32658115 -0.023650713 1.7220001 4286253855
0.33136162 -0.026418351 1.7220001 4286251289
-0.07095214 -0.01811544 1.7220001 4283053147
-0.065776303 -0.014449219 1.7220001 4282922072
0.32396445 -0.015700048 1.7220001 4286453541
0.33060679 -0.01358658 1.7220001 4286055456
-0.063404039 -0.0075480998 1.7220001 4282987604
-0.056862351 -0.0035224466 1.7220001 4282725207
0.3161144 -0.0027173159 1.7220001 4286781995
0.32336062 -0.0057365559 1.7220001 4286979114
-0.052836701 0.00150962 1.7220001 4282658900
-0.046798222 0.0058228201 1.7220001 4282659154
0.30947208 0.0075480998 1.7220001 4286914345
0.31551057 0.0045288601 1.7220001 4286583590
0.32230386 0.0045288601 1.7220001 4286516514
-0.04226936 0.0150962 1.7220001 4282528081
-0.037740499 0.01962506 1.7220001 4282396750
0.30947208 0.013586581 1.7220001 4286580760
0.3155106 0.0150962 1.7220001 4286514977
0.32154906 0.015096201 1.7220001 4286517785
-0.041766152 0.023650713 1.7220001 4282462543
-0.035727672 0.026166746 1.7220001 4282527309
-0.02868278 0.02566354 1.7220001 4282461778
0.30871728 0.026418351 1.7220001 4286712607
0.3155106 0.025663538 1.7220001 4286978603
0.32154906 0.0226443 1.7220001 4286716202
-0.033513565 0.033513565 1.7220001 4282265678
-0.027927969 0.035476066 1.7220001 4282395984
0.30796248 0.034721259 1.7220001 4286909471
0.31324613 0.034721259 1.7220001 4287240751
-0.024531323 0.044533793 1.7220001 4282527314
-0.01811544 0.04830784 1.7220001 4284042611
0.30672735 0.045700315 1.7220001 4286843942
0.31249133 0.040759739 1.7220001 4286843688
-0.01434139 0.055478536 1.7220001 4283845741
0.29739514 0.058875181 1.7220001 4286776344
0.30494323 0.055855941 1.7220001 4286777627
0.31249133 0.058875181 1.7220001 4286383124
-0.011573753 0.062900834 1.7220001 4284371053
-0.0050320667 0.06491366 1.7220001 4284239989
0.00150962 0.066423282 1.7220001 4283911798
0.2948072 0.065776303 1.7220001 4286644764
0.30343363 0.063404039 1.7220001 4286578714
0.0035224466 0.073971383 1.7220001 4283977592
0.28833741 0.076990619 1.7220001 4286513179
0.29399848 0.073593974 1.7220001 4286644758
0.0065416866 0.081016272 1.7220001 4283912059
0.0140179 0.085617021 1.7220001 4283583092
0.0226443 0.089067578 1.7220001 4281609040
0.28833741 0.084538721 1.7220001 4286646042
0.29196051 0.083632953 1.7220001 4286644763
0.01962506 0.092086822 1.7220001 4283648880
0.025160333 0.095106065 1.7220001 4282001486
0.28833741 0.095106065 1.7220001 4286646557
0.02868278 0.10114454 1.7220001 4281410623
0.032708433 0.10416379 1.7220001 4281540932
0.28833741 0.10416379 1.7220001 4286647842
0.037740499 0.11171187 1.7220001 4281476150
0.042269357 0.11775036 1.7220001 4281409338
0.28531817 0.11422791 1.7220001 4286711841
0.046798218 0.12680808 1.7220001 4281146931
0.28531817 0.12529846 1.7220001 4286710302
0.046798218 0.13133694 1.7220001 4281343808
0.28531817 0.13133694 1.7220001 4286776864
0.28531817 0.14492351 1.7220001 4286580773
0.27927971 0.1585101 1.7220001 4286580766
0.28305376 0.15473604 1.7220001 4286843689
0.066121355 0.16394472 1.7220001 4281343785
0.072461754 0.16756782 1.7220001 4281409835
0.27663788 0.16492599 1.7220001 4286978859
0.076990619 0.17058706 1.7220001 4281540394
0.083632946 0.1760217 1.7220001 4281409323
0.26518992 0.17712875 1.7220001 4287112746
0.27324125 0.17415525 1.7220001 4286586671
0.087256029 0.18628709 1.7220001 4281409321
0.093596444 0.18870249 1.7220001 4281474601
0.26569313 0.18568325 1.7220001 4286189343
0.27022198 0.18417364 1.7220001 4285596699
0.088312767 0.19398616 1.7220001 4281540658
0.095106058 0.19474098 1.7220001 4281278769
0.10114454 0.19776022 1.7220001 4281212976
0.26569313 0.194741 1.7220001 4285531930
0.095860869 0.20153426 1.7220001 4281344559
0.10215095 0.20681794 1.7220001 4281540907
0.258145 0.20983718 1.7220001 4286119948
0.26342869 0.20530832 1.7220001 4285923341
0.10416378 0.21436603 1.7220001 4281606441
0.258145 0.21587567 1.7220001 4285923346
0.26116425 0.21285641 1.7220001 4285988874
0.10718302 0.22191414 1.7220001 4282260531
0.11422791 0.22694619 1.7220001 4281802548
0.25693733 0.22553723 1.7220001 4285857816
0.11580943 0.23355977 1.7220001 4282261298
0.12328563 0.23600394 1.7220001 4282064438
0.2566354 0.2339911 1.7220001 4286056981
0.12605327 0.24304882 1.7220001 4282457914
0.24606805 0.24606808 1.7220001 4286121240
0.25437099 0.24078438 1.7220001 4285860379
0.13133694 0.25361615 1.7220001 4282458163
0.14039466 0.2566354 1.7220001 4282327093
0.24304883 0.25512579 1.7220001 4286121244
0.14492352 0.26569313 1.7220001 4282392883
0.24304883 0.26418349 1.7220001 4286186776
0.14794275 0.27324122 1.7220001 4282326831
0.15473604 0.27701527 1.7220001 4282392625
0.24304882 0.27475083 1.7220001 4286187287
0.15700048 0.28229895 1.7220001 4282196533
0.16253574 0.28531817 1.7220001 4282458927
0.24184112 0.2853182 1.7220001 4286252825
0.89520466 0.28833741 1.7220001 4286607722
0.92841631 0.28833741 1.7220001 4285753960
0.93143553 0.2868278 1.7220001 4285687917
0.16756782 0.29286629 1.7220001 4282130991
0.17159347 0.29638872 1.7220001 4281343018
0.23701034 0.2958855 1.7220001 4286318875
0.24002957 0.2943759 1.7220001 4286253337
0.89570785 0.29538232 1.7220001 4282265637
0.90350759 0.29664034 1.7220001 4285619299
0.91596192 0.29550809 1.7220001 4286015849
0.92640346 0.29538229 1.7220001 4285949291
0.93143553 0.2943759 1.7220001 4285883752
0.17722937 0.3028298 1.7220001 4282916394
0.18266402 0.30796248 1.7220001 4285345083
0.23399109 0.30393681 1.7220001 4286253853
0.83481985 0.30947208 1.7220001 4285947745
0.84589046 0.30846569 1.7220001 4286079333
0.85595459 0.30645287 1.7220001 4285882983
0.86473775 0.30535495 1.7220001 4285619554
0.87331516 0.30645287 1.7220001 4285950831
0.88463736 0.30645287 1.7220001 4284834161
0.89490271 0.30403748 1.7220001 4279769137
0.90426248 0.30453154 1.7220001 4279175963
0.91332006 0.30192399 1.7220001 4283647813
0.92600089 0.30162209 1.7220001 4286080873
0.93143553 0.30192399 1.7220001 4285818209
0.18689096 0.3161144 1.7220001 4285408808
0.22694619 0.31752339 1.7220001 4286320922
0.23097186 0.3155106 1.7220001 4286255136
0.81756699 0.31594187 1.7220001 4286080103
0.82576215 0.31369904 1.7220001 4285882466
0.83481985 0.31249133 1.7220001 4285882208
0.84538722 0.31249133 1.7220001 4286013794
0.8755796 0.31249133 1.7220001 4286345596
0.88161808 0.31249133 1.7220001 4286214006
0.18769608 0.32255545 1.7220001 4285539627
0.19272816 0.3245683 1.7220001 4285864740
0.22644299 0.3245683 1.7220001 4286256416
0.78651202 0.32758754 1.7220001 4286540662
0.79707932 0.32758754 1.7220001 4286079592
0.80462742 0.32658115 1.7220001 4286013541
0.81308138 0.32275674 1.7220001 4285948516
0.19675381 0.33161321 1.7220001 4286454066
0.20440254 0.33543757 1.7220001 4286721336
0.22417858 0.33513564 1.7220001 4286321966
0.75933886 0.33966449 1.7220001 4286933612
0.76638371 0.33614203 1.7220001 4286671730
0.77342868 0.33261964 1.7220001 4286540400
0.7834928 0.33060679 1.7220001 4286606706
0.20983718 0.34419334 1.7220001 4287775065
0.21587566 0.34494817 1.7220001 4285803834
0.22292055 0.34369016 1.7220001 4286191672
0.71706951 0.34872222 1.7220001 4287065975
0.72440195 0.34742826 1.7220001 4286804084
0.73556232 0.34608039 1.7220001 4286803568
0.74424267 0.34620619 1.7220001 4286606191
0.75430679 0.34419337 1.7220001 4286605419
0.76235807 0.34268373 1.7220001 4286605942
0.68566936 0.35717613 1.7220001 4287066993
0.69593477 0.35526392 1.7220001 4286935669
0.7042377 0.35249627 1.7220001 4287197555
0.71254063 0.35174146 1.7220001 4287000181
0.72763681 0.3532511 1.7220001 4286868595
0.73216569 0.35174146 1.7220001 4286803314
0.65970391 0.36985689 1.7220001 4287527548
0.66498762 0.36683765 1.7220001 4287461242
0.6741963 0.36200684 1.7220001 4287133043
0.68446171 0.36140302 1.7220001 4287066994
0.61592495 0.37891462 1.7220001 4287197814
0.62598914 0.37790823 1.7220001 4288053639
0.63555002 0.37891462 1.7220001 4287856003
0.64460772 0.37770692 1.7220001 4287658878
0.65442026 0.37551799 1.7220001 4287527293
0.57818449 0.38797233 1.7220001 4287459184
0.59629989 0.38797233 1.7220001 4287327594
0.60611242 0.38570791 1.7220001 4287196265
0.61398399 0.38409045 1.7220001 4287131251
0.62045383 0.38344347 1.7220001 4287658365
0.55463439 0.39582235 1.7220001 4283578396
0.5643822 0.39573613 1.7220001 4287589477
0.57554269 0.3943882 1.7220001 4287327597
0.58724219 0.39703006 1.7220001 4287130221
0.59267682 0.39219928 1.7220001 4287196778
0.53742468 0.40910703 1.7220001 4287197033
0.54497284 0.40759742 1.7220001 4285292147
0.55403054 0.40306854 1.7220001 4280030497
0.5645979 0.40155888 1.7220001 4285812285
0.57516521 0.40220588 1.7220001 4287589479
0.58361906 0.40548396 1.7220001 4287262568
0.5057227 0.41816473 1.7220001 4288052092
0.51538432 0.41695705 1.7220001 4288051835
0.52534777 0.41665506 1.7220001 4287723640
0.53591514 0.41514549 1.7220001 4287460214
0.54376513 0.41393775 1.7220001 4287329144
0.49606115 0.42661864 1.7220001 4288117629
0.5057227 0.42382583 1.7220001 4288183422
0.51402563 0.42193878 1.7220001 4288052092
0.52534777 0.42269364 1.7220001 4287658363
0.53516024 0.42193878 1.7220001 4287789690
0.46798217 0.4392994 1.7220001 4288512385
0.47639292 0.43671149 1.7220001 4288381059
0.48458806 0.43567634 1.7220001 4288249472
0.49446917 0.43326092 1.7220001 4288183421
0.50270343 0.4302417 1.7220001 4288183425
0.42621604 0.44735071 1.7220001 4288708226
0.43326092 0.44735074 1.7220001 4288512127
0.44533789 0.44835714 1.7220001 4288643976
0.45439562 0.44835714 1.7220001 4288643974
0.4643591 0.44473401 1.7220001 4288446595
0.47402066 0.44231865 1.7220001 4288315265
0.40910703 0.45590526 1.7220001 4288907145
0.41514549 0.45590523 1.7220001 4288710020
0.42344841 0.45213118 1.7220001 4288512128
0.43527377 0.4533892 1.7220001 4288446845
0.44533789 0.45137635 1.7220001 4288775559
0.45439562 0.45137635 1.7220001 4288644228
0.36985689 0.46949181 1.7220001 4289170066
0.37589538 0.4679822 1.7220001 4289170320
0.38538441 0.46733522 1.7220001 4289038986
0.39401081 0.46546617 1.7220001 4288973705
0.403404 0.46278238 1.7220001 4288907657
0.41514549 0.46043411 1.7220001 4288644485
0.43326095 0.46194372 1.7220001 4288512640
0.35777995 0.47854954 1.7220001 4289236626
0.36650217 0.47620121 1.7220001 4289170321
0.37589538 0.47402069 1.7220001 4289038732
0.38495311 0.47402069 1.7220001 4289038473
0.39099157 0.47251105 1.7220001 4289038981
0.32758754 0.48760727 1.7220001 4288511620
0.33513564 0.48609763 1.7220001 4288840069
0.34570298 0.48609766 1.7220001 4289499021
0.35432938 0.4837254 1.7220001 4289170835
0.36442226 0.48217264 1.7220001 4289170835
0.30584902 0.49908036 1.7220001 4289102720
0.31588799 0.49704242 1.7220001 4289102465
0.32419091 0.4944005 1.7220001 4288773759
0.33463243 0.49062648 1.7220001 4288709253
0.34268373 0.49062648 1.7220001 4289302923
0.2777701 0.50874192 1.7220001 4289038468
0.28456336 0.50798708 1.7220001 4288840834
0.29558358 0.50693035 1.7220001 4288971391
0.30433941 0.50511885 1.7220001 4289037184
0.31249133 0.50421309 1.7220001 4288905599
0.24531326 0.51704484 1.7220001 4289169025
0.25512576 0.51629001 1.7220001 4289037181
0.26357964 0.5129689 1.7220001 4289036928
0.27173162 0.51176119 1.7220001 4289169538
0.28833741 0.5132708 1.7220001 4288446594
0.29362109 0.51251602 1.7220001 4288708218
0.1962506 0.52987659 1.7220001 4289433739
0.20983718 0.52987659 1.7220001 4289170572
0.22493339 0.52836704 1.7220001 4289432973
0.23355977 0.52513206 1.7220001 4289302409
0.24229401 0.52157372 1.7220001 4288972418
0.17964478 0.53893435 1.7220001 4289170833
0.18689096 0.53712285 1.7220001 4289432723
0.19436356 0.53553766 1.7220001 4289433488
0.20466135 0.53418982 1.7220001 4289236619
0.21587567 0.53289586 1.7220001 4289236368
0.22191414 0.53289586 1.7220001 4289302158
0.17528366 0.54530829 1.7220001 4289500314
0.18568327 0.54195356 1.7220001 4289301908
0.11699555 0.55629492 1.7220001 4289961119
0.12590231 0.55584204 1.7220001 4289763741
0.13496003 0.55282283 1.7220001 4289632155
0.14492351 0.55704975 1.7220001 4289434775
0.15473604 0.55478537 1.7220001 4289434264
0.16454858 0.55302411 1.7220001 4289566105
0.17209668 0.55101132 1.7220001 4289631384
0.073971376 0.56912673 1.7220001 4290159014
0.083532304 0.5681203 1.7220001 4290093476
0.095537387 0.56697017 1.7220001 4289896358
0.10378638 0.56648487 1.7220001 4289830308
0.11246669 0.56233346 1.7220001 4289829537
0.12227922 0.56006902 1.7220001 4289632152
0.058875185 0.57516527 1.7220001 4289368468
0.065517507 0.57335365 1.7220001 4289566625
0.072461754 0.572146 1.7220001 4290027943
0.087557957 0.572146 1.7220001 4289962402
-0.01056734 0.58724219 1.7220001 4289435552
-0.0075480998 0.58724219 1.7220001 4289435552
0.02415392 0.58724219 1.7220001 4289829021
0.034721259 0.58724219 1.7220001 4289631898
0.0452886 0.58497775 1.7220001 4289368981
0.055855941 0.5812037 1.7220001 4289434258
-0.043024167 0.59856439 1.7220001 4289566103
-0.034721259 0.59811151 1.7220001 4289500565
-0.02523222 0.5971626 1.7220001 4289435284
-0.0150962 0.59267688 1.7220001 4289566364
-0.0045288601 0.59579676 1.7220001 4289500570
0.0045288601 0.59680313 1.7220001 4289435543
0.014492352 0.59358263 1.7220001 4289500827
0.02566354 0.59146911 1.7220001 4289632415
0.034721259 0.5902614 1.7220001 4289566360
-0.084538713 0.60837686 1.7220001 4289304472
-0.073367529 0.60716915 1.7220001 4289303954
-0.06491366 0.60837686 1.7220001 4289304216
-0.055855937 0.605735 1.7220001 4289369496
-0.046420816 0.6042254 1.7220001 4289500309
-0.034721259 0.60233837 1.7220001 4289369495
-0.10114454 0.61743456 1.7220001 4289435552
-0.095106065 0.61491853 1.7220001 4289567134
-0.083532304 0.6124025 1.7220001 4289370266
-0.073971376 0.61290568 1.7220001 4289435284
-0.06491366 0.61290574 1.7220001 4289369753
-0.16454858 0.62951154 1.7220001 4289503398
-0.15624566 0.62724715 1.7220001 4289634470
-0.13133694 0.62951154 1.7220001 4289438116
-0.12454365 0.62875676 1.7220001 4289371298
-0.11456338 0.62682778 1.7220001 4289436578
-0.10459511 0.62261045 1.7220001 4289435808
-0.098125301 0.62045383 1.7220001 4289501599
-0.20077945 0.63856924 1.7220001 4289305501
-0.19398618 0.63705963 1.7220001 4289371042
-0.18467684 0.63655645 1.7220001 4289503139
-0.1751159 0.63555002 1.7220001 4289503141
-0.16454858 0.63555002 1.7220001 4289568934
-0.15649727 0.63555002 1.7220001 4289634471
-0.14492352 0.63705963 1.7220001 4289503140
-0.13435617 0.63555002 1.7220001 4289503139
-0.12650616 0.63434231 1.7220001 4289437090
-0.11925998 0.63253075 1.7220001 4289436319
-0.23701034 0.647627 1.7220001 4289173661
-0.20530832 0.64460772 1.7220001 4289305502
-0.17300245 0.64279616 1.7220001 4289700006
-0.16454858 0.64158851 1.7220001 4289634469
-0.15247162 0.64309812 1.7220001 4289503143
-0.14401774 0.64219236 1.7220001 4289568420
-0.136369 0.64259487 1.7220001 4289371298
-0.25361615 0.65970391 1.7220001 4288517017
-0.2430488 0.6581943 1.7220001 4288845209
-0.23426557 0.65558678 1.7220001 4289042074
-0.22493339 0.6566847 1.7220001 4289108379
-0.21630697 0.6558221 1.7220001 4289174431
-0.20832756 0.65064621 1.7220001 4289109152
-0.27248642 0.6680069 1.7220001 4287859602
-0.26418349 0.6657424 1.7220001 4288188052
-0.25512576 0.66272318 1.7220001 4288582045
-0.24455845 0.66372961 1.7220001 4288779161
-0.33664525 0.67781943 1.7220001 4286346360
-0.32255545 0.67681295 1.7220001 4286936701
-0.31475574 0.6770646 1.7220001 4287004033
-0.30393681 0.67681289 1.7220001 4287332999
-0.29362109 0.67706454 1.7220001 4287662481
-0.28531817 0.67630976 1.7220001 4287793808
-0.27669176 0.6739375 1.7220001 4287859601
-0.35415685 0.68627328 1.7220001 4286148723
-0.34656563 0.68472052 1.7220001 4286345846
-0.30494326 0.68083864 1.7220001 4287135881
-0.2943759 0.68234825 1.7220001 4287662993
-0.38193387 0.69895405 1.7220001 4285885547
-0.36381838 0.69668961 1.7220001 4285819759
-0.35777995 0.69291556 1.7220001 4286017137
-0.42420322 0.70801175 1.7220001 4284702042
-0.41363585 0.70801175 1.7220001 4284767583
-0.4054839 0.70740789 1.7220001 4285162083
-0.39401078 0.70801181 1.7220001 4285293927
-0.38344347 0.70499253 1.7220001 4285490793
-0.37551796 0.70536995 1.7220001 4285556587
-0.36834729 0.70197332 1.7220001 4285688173
-0.4312481 0.71606302 1.7220001 4284307029
-0.42344841 0.71405029 1.7220001 4284635482
-0.41514549 0.71203738 1.7220001 4284767072
-0.40457815 0.71103102 1.7220001 4285096798
-0.39461464 0.71223867 1.7220001 4285228132
-0.46496296 0.72310799 1.7220001 4282860618
-0.45364082 0.72159833 1.7220001 4283189835
-0.44735071 0.72210151 1.7220001 4283518286
-0.43326095 0.72008872 1.7220001 4284175446
0.19869621 -0.35318124 1.739 4286388785
0.20610896 -0.35411134 1.7378572 4285800505
0.21420583 -0.35498577 1.7360001 4285146682
0.22351381 -0.35601845 1.7344286 4284557884
0.16922209 -0.34301776 1.7390001 4287628330
0.17532016 -0.34454229 1.7390002 4287497258
0.18510339 -0.34502512 1.7354445 4287300910
0.19468664 -0.34730116 1.7350001 4287040561
0.20334634 -0.3475098 1.7310001 4286910265
0.12501091 -0.33158383 1.7390001 4288613438
0.13602699 -0.33582908 1.7378572 4288548167
0.14482972 -0.33387062 1.739 4288417860
0.15456554 -0.3342489 1.7370002 4287892282
0.16464646 -0.336238 1.7372224 4287891508
0.17406514 -0.33750349 1.7326 4287694392
0.18058369 -0.33840472 1.7310001 4287564595
0.086897828 -0.32167441 1.739 4288744259
0.096352302 -0.32342952 1.7367144 4288810049
0.10534916 -0.32300472 1.7344286 4288875326
0.11482868 -0.32539478 1.7332858 4288745285
0.12595333 -0.32727632 1.7310001 4288743754
0.13505839 -0.32929966 1.7310001 4288613450
0.14264594 -0.32929966 1.7310001 4288547656
0.15630352 -0.32929966 1.7310001 4288220993
0.16237357 -0.32929966 1.7310001 4288287037
0.059456408 -0.31252727 1.7390001 4289137735
0.066162467 -0.31257066 1.7350001 4289137480
0.074938841 -0.31388161 1.7344285 4289005630
0.084495522 -0.31648704 1.7344286 4288939076
0.095603131 -0.31715959 1.7310001 4288875331
0.10319068 -0.31715959 1.7310001 4289071425
0.019818803 -0.30033109 1.7390001 4289534805
0.02744142 -0.30033109 1.7390001 4289534553
0.035064038 -0.30236378 1.739 4289468755
0.044919085 -0.30379349 1.737 4289401940
0.054785527 -0.30742508 1.7360001 4289203788
0.063735418 -0.30805454 1.7310001 4289268049
-0.022867849 -0.29118395 1.7390001 4289280367
-0.016769756 -0.29118395 1.739 4289149807
-0.0038113082 -0.29270846 1.7390001 4289019250
0.0039637606 -0.29301336 1.7390001 4289477998
0.016246386 -0.29502374 1.7376667 4289801562
0.025835074 -0.29485282 1.7336668 4289406546
0.034295727 -0.29652146 1.7310002 4288815445
0.042490281 -0.29894948 1.7310001 4288552276
-0.034264952 -0.2824747 1.7370002 4289603423
-0.026238414 -0.28481475 1.735 4289539424
-0.0151751 -0.28605062 1.7310001 4288950890
-0.0051637422 -0.28707451 1.7326 4288362354
0.0053112851 -0.28756815 1.7310001 4288885871
0.013657589 -0.28984439 1.7310001 4290001773
0.022762651 -0.28984439 1.7310001 4289737574
-0.082324259 -0.27288967 1.7390001 4289928796
-0.074701644 -0.27288967 1.739 4290059098
-0.06598337 -0.27335605 1.7342001 4290059353
-0.053613208 -0.27416766 1.735 4289991769
-0.044109482 -0.27480051 1.7350001 4290057814
-0.036926076 -0.27669266 1.7310001 4289994331
-0.10366759 -0.26069349 1.7390001 4290076821
-0.09452045 -0.26374254 1.7390001 4289215612
-0.085176937 -0.26694193 1.7350001 4289861208
-0.074964985 -0.26738527 1.7310002 4289927504
-0.06525293 -0.26859927 1.7310001 4290057811
-0.14178067 -0.25154635 1.7390001 4289798243
-0.13521443 -0.2514407 1.733 4289733480
-0.1253366 -0.2514407 1.733 4289733218
-0.11475754 -0.25489423 1.7321428 4290727552
-0.1062257 -0.25645918 1.7310001 4290007426
-0.097120643 -0.25949422 1.7310001 4289877135
-0.17415816 -0.2426039 1.7350001 4289799009
-0.16508146 -0.24512966 1.7367144 4289798753
-0.15400812 -0.24621767 1.7336668 4289995616
-0.14427683 -0.24602716 1.7323335 4290062442
-0.13657591 -0.24735413 1.7310001 4290061929
-0.2225804 -0.23020302 1.7390001 4291903599
-0.21495779 -0.23223571 1.739 4290262116
-0.20518412 -0.23253672 1.7336668 4289795671
-0.19551086 -0.2362587 1.7342001 4289863003
-0.18484953 -0.23698667 1.7344286 4289929314
-0.17603116 -0.23824906 1.7310001 4289929829
-0.23325206 -0.2225804 1.7390001 4289529166
-0.22409475 -0.22318704 1.7342001 4290975310
-0.21413606 -0.22678898 1.7323333 4290917477
-0.20789887 -0.22914401 1.7310001 4289796181
-0.23477657 -0.21495779 1.7390002 4283700038
-0.22654256 -0.21353532 1.7310001 4284617291
-0.23020302 -0.2088597 1.7390001 4283179084
-0.22333717 -0.20583147 1.7360001 4283377487
-0.21498059 -0.20435803 1.7310001 4283443023
-0.21377897 -0.19752674 1.7376667 4283180622
-0.20725855 -0.19264558 1.7358001 4283114573
-0.20408252 -0.18507507 1.7340001 4282983244
-0.19879381 -0.18210119 1.7310001 4282917709
-0.20276161 -0.17532019 1.739 4282786379
-0.196253 -0.17423335 1.732 4282852172
-0.19499053 -0.16705966 1.7376667 4282786123
-0.18744712 -0.16413887 1.7336668 4282523723
-0.182015 -0.15615188 1.7350001 4283184223
-0.17653699 -0.15124516 1.7310001 4285620367
-0.18141827 -0.14787877 1.7390001 4283054683
-0.17443848 -0.14479092 1.7340001 4285357968
-0.17328747 -0.13771528 1.739 4285226390
-0.16768485 -0.13429964 1.7310001 4285160085
-0.16484204 -0.12600702 1.7370001 4285028240
-0.15630352 -0.12443582 1.7310001 4285093519
-0.16007495 -0.11433925 1.739 4285028240
-0.15395339 -0.11583957 1.7334619 4285093261
-0.14517511 -0.11280157 1.7310001 4284895627
0.36875492 -0.11077823 1.7310001 4284824877
0.37543195 -0.11199224 1.7310002 4284759342
0.38329619 -0.11255173 1.7350001 4284693808
-0.15092781 -0.10824116 1.7390001 4284896396
-0.14412071 -0.10532954 1.7350001 4284830090
-0.13687941 -0.10410118 1.7310002 4284632711
0.36723742 -0.10470819 1.7310001 4284627241
0.37617543 -0.10508301 1.7372224 4284693036
0.38417989 -0.10671663 1.7390001 4284627756
-0.14254293 -0.096807241 1.7390001 4285812868
-0.1352002 -0.095699757 1.7327778 4284763268
-0.12898836 -0.094085619 1.7310001 4285025159
0.36577746 -0.095748067 1.7336668 4284823593
0.37564251 -0.096044973 1.7390001 4284692778
0.38519621 -0.095536798 1.7390002 4284562217
-0.13495073 -0.08864449 1.7374003 4286860419
-0.12644473 -0.084705681 1.7339092 4287055997
0.35964987 -0.080428027 1.7310001 4284952609
0.36504751 -0.085176937 1.735 4284823075
0.37477866 -0.086643748 1.7390002 4284692521
0.38468805 -0.086389653 1.7390002 4284627245
-0.1254244 -0.075658374 1.7376667 4288562552
-0.11866929 -0.073750988 1.7310002 4288628344
0.35661486 -0.073599234 1.7310001 4284683808
0.36588562 -0.074701644 1.7390002 4283111457
-0.12043734 -0.067079023 1.7390001 4285545082
-0.11396553 -0.065337084 1.7332858 4285348980
-0.1062257 -0.06221791 1.7310001 4285086316
0.34750977 -0.065252922 1.7310001 4285992210
0.35467988 -0.0656441 1.7334001 4285536283
0.36436105 -0.0655545 1.7390002 4284689703
-0.11240742 -0.056962468 1.7374001 4283712880
-0.10485478 -0.054702599 1.7334001 4283449451
-0.098638147 -0.05007783 1.7310001 4283383656
0.3475098 -0.054630361 1.7310001 4286122005
0.35412917 -0.05471452 1.7336668 4285927961
0.36283654 -0.054882839 1.7390002 4285277983
-0.10290532 -0.04497344 1.7390001 4283449452
-0.096600518 -0.043630324 1.7332858 4283449450
0.34675103 -0.043249033 1.7310001 4286187796
0.3541292 -0.04407559 1.7336668 4286189591
0.36131203 -0.045735702 1.7390001 4285276447
-0.10214306 -0.038113084 1.7390001 4283449450
-0.095424041 -0.035862055 1.7355715 4283383654
-0.087509744 -0.033891056 1.7310001 4283054688
0.33840472 -0.033385217 1.7310001 4286383122
0.34505492 -0.03454176 1.732 4286252826
0.35365522 -0.036021944 1.7363335 4286123035
0.36131203 -0.038113084 1.7390001 4285405473
-0.092995919 -0.028965943 1.7390001 4283252323
-0.085084014 -0.025827477 1.7330002 4283054687
-0.07739301 -0.022762651 1.7310001 4282922840
0.33750349 -0.025211707 1.7326 4286382617
0.34474277 -0.026314404 1.7367144 4286318108
0.35216489 -0.028965943 1.7390001 4286384668
-0.083735868 -0.016743805 1.7366002 4282988637
-0.075000763 -0.014573005 1.7318001 4282922841
-0.068287946 -0.01062257 1.7310001 4282791002
0.32929966 -0.01214008 1.7310001 4286385186
0.33691761 -0.015368522 1.7375457 4286316823
0.34454226 -0.018294279 1.7390001 4286383124
-0.073630355 -0.0055840746 1.7376667 4282856279
-0.065731592 -0.0036863834 1.7321428 4282790998
0.32626465 -0.0030350201 1.7310001 4286584109
0.33522573 -0.0049123527 1.7390002 4286317592
-0.064029977 0.0045735701 1.7390002 4282791000
-0.05652725 0.0049319072 1.7310001 4282725460
0.32727632 0.005564203 1.7310001 4286384674
0.33387062 0.0040653958 1.7390002 4286382618
-0.053592384 0.013704577 1.7366002 4282593617
-0.047042809 0.0151751 1.7310001 4282593360
0.32756537 0.015391887 1.7310001 4286780703
0.33326083 0.014940327 1.7390001 4286123034
-0.050309271 0.022867849 1.7390001 4282593359
-0.045091938 0.026851423 1.7336668 4282593613
0.32669547 0.026267311 1.7332858 4286716200
0.33310837 0.025916897 1.7390001 4286452257
-0.043229811 0.034538288 1.7344286 4282527823
-0.036420241 0.036420241 1.7310001 4282462543
0.31715959 0.034902729 1.7310001 4286846266
0.32322723 0.034561925 1.733 4286846259
0.33158383 0.034301773 1.7390001 4286649650
-0.042178478 0.042178478 1.739 4282462287
-0.034959618 0.044078704 1.7336668 4282462287
-0.028832689 0.044007789 1.7310001 4282592845
0.31594557 0.044614796 1.7310002 4286977070
0.32300472 0.043659378 1.7344286 4286515742
-0.033031337 0.051325619 1.739 4282396751
-0.026109923 0.055114999 1.7331821 4282330444
-0.018715957 0.058171216 1.7310001 4282922583
0.31585887 0.053979997 1.7310001 4286317848
0.32282898 0.054821473 1.7370001 4286448155
-0.024392374 0.062505454 1.7390001 4282131790
-0.016375648 0.065995947 1.7327778 4282726238
-0.0045525301 0.066770434 1.7310001 4284305277
0.30501953 0.068287946 1.7310001 4286513173
0.31477445 0.06538853 1.7345556 4286382354
0.32167441 0.064029977 1.7390001 4286579220
-0.014295451 0.074193351 1.7342001 4283515236
-0.0045579844 0.074475653 1.7336668 4284240249
0.00151751 0.075875498 1.7310001 4284043385
0.29894948 0.07739301 1.7310001 4286644245
0.30549252 0.074475661 1.7336668 4286513172
0.31354365 0.072668947 1.739 4286578703
-0.01217164 0.080613881 1.7350001 4282198855
-0.0045735701 0.085373305 1.7390002 4283383385
0.003878081 0.086160854 1.7310001 4284109178
0.01062257 0.088015579 1.7310001 4283845756
0.29743195 0.084980555 1.7310001 4286513174
0.30476508 0.085336134 1.7382002 4286644503
0.0054397169 0.095548272 1.7378572 4283976551
0.014782911 0.096043535 1.7339092 4283977076
0.022762651 0.098638147 1.7310001 4282727526
0.29439694 0.095603131 1.7310001 4286513687
0.30185562 0.09604498 1.7390002 4286578708
0.0076226168 0.10214306 1.7390001 4283249475
0.016392011 0.10430103 1.7354445 4284043119
0.025418291 0.10508756 1.7310001 4282859366
0.031867709 0.10774321 1.7310001 4281409601
0.29439694 0.10470819 1.7310001 4286580767
0.30109334 0.10595436 1.7390001 4286644249
0.019818803 0.11433925 1.739 4283844715
0.025874037 0.11416703 1.7363334 4283581804
0.034523349 0.11495138 1.7310001 4281738309
0.28984439 0.11533076 1.7310001 4286843425
0.29508075 0.11407626 1.7350001 4286646048
0.30155072 0.11372944 1.7390001 4286513434
0.027060293 0.12386751 1.7390002 4283778143
0.034739032 0.12526795 1.7368184 4282265929
0.042490285 0.12595333 1.7310001 4281343547
0.28984439 0.12443582 1.7310001 4286973475
0.29474118 0.12399456 1.7390002 4286711588
0.30033109 0.12043734 1.7390001 4286644765
0.035445169 0.13530144 1.7390002 4282461773
0.043728352 0.13575511 1.7350001 4281474873
0.05260684 0.1371347 1.7342001 4281474609
0.28984439 0.13657591 1.7310001 4286778153
0.29321662 0.13568257 1.739 4286646303
0.038113084 0.14178067 1.7390001 4281606980
0.04497344 0.14254293 1.7390001 4281606201
0.053232078 0.1422168 1.7350001 4281540406
0.28984439 0.14416344 1.7310001 4286515488
0.29423299 0.14482972 1.739 4286449687
0.28680938 0.15782103 1.7310001 4286915637
0.29270846 0.15397687 1.7390002 4287176235
0.059456408 0.16769756 1.7390001 4281213229
0.063229583 0.16743194 1.7310001 4281474601
0.2855128 0.16553833 1.7323333 4286980404
0.29118395 0.16007495 1.7390001 4285994551
0.059456408 0.17227113 1.7390001 4281540394
0.065858483 0.17474091 1.7370001 4281474861
0.07397861 0.17489302 1.7310001 4281474862
0.080428027 0.17754866 1.7310001 4281540658
0.27770433 0.17754866 1.7310001 4284943148
0.28481475 0.17529804 1.735 4285595683
0.068603553 0.18141827 1.7390001 4281474864
0.075038061 0.18398187 1.7380002 4281409327
0.082215428 0.1846091 1.7321428 4281278509
0.27580744 0.18627435 1.7310001 4285334047
0.28426197 0.18473487 1.7358001 4285399061
0.07775069 0.19208995 1.7390001 4281475632
0.082953803 0.19582056 1.7345557 4281606193
0.27495301 0.19596295 1.7327778 4285138715
0.28508586 0.19463083 1.7390002 4286120726
0.08560355 0.2051044 1.7353637 4281933877
0.094996125 0.20668486 1.7310002 4281606450
0.26859927 0.20638135 1.7310001 4285988886
0.27579921 0.20570701 1.7381114 4286317596
0.28203681 0.20276161 1.7390001 4286580255
0.088422351 0.21190874 1.7390001 4281738037
0.096287183 0.21366683 1.7355716 4281999413
0.10167316 0.21396892 1.7310001 4281802288
0.26698971 0.21531254 1.7336668 4285859089
0.27593872 0.21495777 1.7390002 4286319389
0.099094011 0.22410493 1.739 4282392369
0.10450678 0.22460222 1.7340001 4282392368
0.11077823 0.2276265 1.7310001 4282064951
0.26563317 0.22399028 1.7334001 4285009435
0.27593869 0.22410491 1.7390002 4284682014
0.099094018 0.23325206 1.7390001 4282129452
0.10504413 0.23445328 1.7366002 4282261037
