# .PCD v0.7 - Point Cloud Data file format
VERSION 0.7
FIELDS x y z normal_x normal_y normal_z curvature
SIZE 4 4 4 4 4 4 4
TYPE F F F F F F F
COUNT 1 1 1 1 1 1 1
WIDTH 623
HEIGHT 1
VIEWPOINT 0 0 0 1 0 0 0
POINTS 623
DATA ascii
1.895 -0.013 -4 -0.00048076923 0.99999964 0.00073617796 6.2719125e+19
1.9035001 -0.013 -3.9945002 0.001293282 0.99999714 -0.0019729151 6.2719125e+19
-1.997 -0.25600001 -3.9879999 -0.0079532405 -0.99653965 0.082737401 6.2719125e+19
-1.988 -0.25600001 -3.9849999 -0.021866221 -0.99427152 0.1046233 6.2719125e+19
-1.98 -0.25600001 -3.9809999 -0.014201724 0.99952114 -0.027490312 6.2719125e+19
-1.891 -0.25 -3.9879999 -0.045036986 0.99867773 0.02479022 6.2719125e+19
-1.883 -0.25 -3.9849999 -0.0069701765 -0.99683017 0.079253286 6.2719125e+19
-1.875 -0.249 -3.9809999 -0.048778638 0.99725401 0.055722747 6.2719125e+19
-1.786 -0.243 -3.9879999 -0.012787613 0.99939126 -0.032460399 6.2719125e+19
-1.778 -0.243 -3.9849999 -0.048942778 0.99665278 0.065482639 6.2719125e+19
-1.77 -0.243 -3.9820001 -0.1867266 0.90376127 0.38516057 6.2719125e+19
-1.681 -0.237 -3.9890001 -0.0093446244 0.99953616 -0.028985973 6.2719125e+19
-1.673 -0.237 -3.9849999 -0.02345355 0.99966061 -0.011342201 6.2719125e+19
-1.665 -0.236 -3.9820001 -0.0099282097 0.99890113 -0.045802865 6.2719125e+19
-1.576 -0.23 -3.9890001 -0.050906133 -0.9854179 0.16235806 6.2719125e+19
-1.568 -0.23 -3.9849999 -0.099696793 0.97560084 0.1956106 6.2719125e+19
-1.5599999 -0.23 -3.9820001 -0.018514467 0.99978572 -0.0092575047 6.2719125e+19
-1.471 -0.22400001 -3.9890001 -0.0073563014 0.99891096 -0.046073664 6.2719125e+19
-1.4630001 -0.223 -3.9860001 -0.32165781 -0.52357972 0.78892374 6.2719125e+19
-1.455 -0.223 -3.9820001 -0.0059419232 0.99894547 -0.045525867 6.2719125e+19
-1.3660001 -0.21699999 -3.9890001 0.01024541 0.99902827 -0.042866506 6.2719125e+19
-1.358 -0.21699999 -3.9860001 -0.0026758667 0.99927467 -0.03798528 6.2719125e+19
-1.35 -0.21699999 -3.9820001 -0.011231536 0.99960864 -0.025622001 6.2719125e+19
-1.261 -0.211 -3.99 -0.038740098 0.99892384 0.025504187 6.2719125e+19
-1.253 -0.20999999 -3.9860001 -0.095258407 0.98279983 0.1582097 6.2719125e+19
-1.245 -0.20999999 -3.983 -0.013420545 0.9994871 -0.029077353 6.2719125e+19
-1.155 -0.204 -3.99 -0.37069535 0.41316608 0.83179253 6.2719125e+19
-1.148 -0.204 -3.9860001 -0.0089412984 0.99955046 -0.028615694 6.2719125e+19
-1.14 -0.204 -3.983 -0.020022593 0.99963069 -0.018368101 6.2719125e+19
-1.0465 -0.197 -3.9885001 -0.068293847 0.99365658 0.089344837 6.2719125e+19
-1.035 -0.197 -3.983 -0.0072525023 -0.99808586 0.061416615 6.2719125e+19
-0.94499999 -0.191 -3.99 -0.013519397 0.99965274 -0.022617966 6.2719125e+19
-0.93699998 -0.191 -3.987 -0.36521083 0.52756697 0.7670033 6.2719125e+19
-0.93000001 -0.19 -3.983 -0.037636563 0.99903166 0.022785712 6.2719125e+19
-0.83599997 -0.184 -3.9885001 0.00070940942 0.99900091 -0.044684239 6.2719125e+19
-0.82499999 -0.184 -3.984 -0.018592648 0.99966067 0.018242506 6.2719125e+19
-0.727 -0.178 -3.987 -0.048954323 0.99817699 0.035303771 6.2719125e+19
-0.72000003 -0.177 -3.984 -0.045170791 0.9982689 0.03766641 6.2719125e+19
-0.62199998 -0.171 -3.987 -0.047531731 -0.99400669 0.098444894 6.2719125e+19
-0.61500001 -0.171 -3.984 -0.045068748 0.99700594 0.062833734 6.2719125e+19
-0.60799998 -0.171 -3.9809999 -0.0073706154 0.99927843 -0.037259378 6.2719125e+19
-0.51700002 -0.164 -3.9879999 -0.25009978 0.86020666 0.44440347 6.2719125e+19
-0.50650001 -0.164 -3.9825001 -0.0068264259 -0.99860376 0.05238232 6.2719125e+19
-0.412 -0.15800001 -3.9879999 0.00023943547 0.99947476 -0.032405283 6.2719125e+19
-0.405 -0.15800001 -3.9849999 -0.03347484 0.99930727 0.016262408 6.2719125e+19
-0.398 -0.15800001 -3.9809999 -0.030447159 -0.99164963 0.12531565 6.2719125e+19
-0.303 -0.15099999 -3.9864998 -0.023518018 0.99972153 -0.0019549329 6.2719125e+19
-0.29300001 -0.15099999 -3.9809999 -0.083263315 -0.97948909 0.18348919 6.2719125e+19
-0.20100001 -0.145 -3.9879999 0.003937765 -0.99902564 0.043956436 6.2719125e+19
-0.19400001 -0.145 -3.9849999 0.01247296 -0.99920321 0.037912831 6.2719125e+19
-0.18799999 -0.14399999 -3.9820001 -0.034005973 0.9993425 0.012578433 6.2719125e+19
-0.096000001 -0.138 -3.9890001 0 1 0 6.2719125e+19
-0.085999995 -0.138 -3.9835 -0 1 -0 6.2719125e+19
0.0089999996 -0.132 -3.9890001 -0.200909 0.91989708 0.3367863 6.2719125e+19
0.016000001 -0.131 -3.9849999 -0.0441668 0.9984774 0.033047412 6.2719125e+19
0.022 -0.131 -3.9820001 -0.043802012 0.99851674 0.03233587 6.2719125e+19
0.114 -0.125 -3.9890001 0 1 0 6.2719125e+19
0.12450001 -0.125 -3.9840002 -0.018041842 -0.99840105 0.053570107 6.2719125e+19
0.22299999 -0.118 -3.9875002 -0.45851031 -0.18942821 0.86826569 6.2719125e+19
0.233 -0.118 -3.9820001 -0.0080063725 0.99984968 -0.015380406 6.2719125e+19
0.32499999 -0.112 -3.99 -0.0071023516 0.99989039 0.012988812 6.2719125e+19
0.33450001 -0.112 -3.9844999 -0.01308844 0.99980873 -0.014537239 6.2719125e+19
0.43349999 -0.105 -3.9879999 -0.025526259 0.99924284 0.02936369 6.2719125e+19
0.44299999 -0.105 -3.983 0.0061853593 0.99991608 -0.011383076 6.2719125e+19
0.53600001 -0.098999999 -3.99 -0.014473978 0.9998889 -0.0035588956 6.2719125e+19
0.54499996 -0.098999999 -3.9850001 -0.038065206 0.99922246 0.010274031 6.2719125e+19
0.64399999 -0.092 -3.9885001 0.0055854013 0.99993706 -0.0097269109 6.2719125e+19
0.653 -0.092 -3.983 -0.08496242 -0.98510063 0.14952637 6.2719125e+19
0.74599999 -0.086000003 -3.99 -0.065192401 0.99606431 0.060049631 6.2719125e+19
0.755 -0.085000001 -3.9854999 -0.48406878 0.25588825 0.83677876 6.2719125e+19
0.85699999 -0.079000004 -3.987 -0.0019848847 0.99999249 0.0033283131 6.2719125e+19
0.86299998 -0.079000004 -3.984 -0.015164323 0.99955237 0.02579003 6.2719125e+19
0.96599996 -0.071999997 -3.9854999 -0.012234663 0.99981427 -0.014886384 6.2719125e+19
0.97399998 -0.071999997 -3.9809999 -0 1 -0 6.2719125e+19
1.068 -0.066 -3.9879999 -0.079778217 -0.98640156 0.14369178 6.2719125e+19
1.0764999 -0.066 -3.9825001 -0.0078068925 0.99996608 -0.0026310752 6.2719125e+19
1.176 -0.059 -3.9860001 -0.0077332309 -0.99989039 0.01262911 6.2719125e+19
1.184 -0.059 -3.9809999 -0.013661218 -0.99965751 0.022322875 6.2719125e+19
1.279 -0.052999999 -3.9879999 -0.027737517 0.99953902 0.012346702 6.2719125e+19
1.284 -0.052999999 -3.9849999 0.010502794 -0.99952811 0.028862983 6.2719125e+19
1.29 -0.052999999 -3.9809999 0.010361898 -0.99961472 0.025749441 6.2719125e+19
1.3865 -0.046 -3.9864998 0.0024617203 0.99998945 -0.0038960283 6.2719125e+19
1.395 -0.046 -3.9820001 -0.0060890913 -0.99993521 0.0096233599 6.2719125e+19
1.489 -0.039000001 -3.9890001 0.00058264064 -0.99937683 0.035293531 6.2719125e+19
1.494 -0.039000001 -3.9849999 -0.09081547 0.98948574 0.1125638 6.2719125e+19
1.5 -0.039000001 -3.9820001 -0.049729738 0.99712241 0.057216853 6.2719125e+19
1.594 -0.033 -3.9890001 -0.0095941229 -0.99984854 0.01452006 6.2719125e+19
1.6025 -0.033 -3.9835 -0.0059753349 0.9999404 0.0091344258 6.2719125e+19
1.7025001 -0.026000001 -3.9875002 0.0029323145 0.99998581 -0.0044533382 6.2719125e+19
1.71 -0.026000001 -3.9820001 -0.0051553487 0.99995643 0.0077824988 6.2719125e+19
1.8049999 -0.02 -3.9890001 0.00050255697 0.99999958 -0.00074622093 6.2719125e+19
1.8125 -0.02 -3.9840002 -0.0029414634 0.99998611 0.0043649045 6.2719125e+19
1.911 -0.013 -3.99 0.0010979304 0.99999815 -0.0015994384 6.2719125e+19
-1.972 -0.25600001 -3.9779999 -0.21262673 0.86273819 0.45877314 6.2719125e+19
-1.9630001 -0.25600001 -3.974 -0.027534194 0.99960977 0.0047059315 6.2719125e+19
-1.955 -0.255 -3.971 -0.022248453 0.99971944 -0.0081266472 6.2719125e+19
-1.867 -0.249 -3.9779999 -0.09747725 0.97770709 0.18597613 6.2719125e+19
-1.858 -0.249 -3.9749999 -0.031045852 0.99944395 0.012160989 6.2719125e+19
-1.85 -0.249 -3.971 -0.034849651 0.99888462 0.031858601 6.2719125e+19
-1.762 -0.243 -3.9779999 -0.012646656 0.99965042 -0.02321689 6.2719125e+19
-1.7539999 -0.243 -3.9749999 -0.033419248 0.99936891 0.01203946 6.2719125e+19
-1.7460001 -0.242 -3.971 -0.044838786 0.99823982 0.038817395 6.2719125e+19
-1.6569999 -0.236 -3.9779999 -0.01520196 -0.99604321 0.087560706 6.2719125e+19
-1.645 -0.236 -3.9734998 0.00092493847 0.99892962 -0.046246767 6.2719125e+19
-1.552 -0.23 -3.9790001 -0.028778067 0.99957353 0.0049723475 6.2719125e+19
-1.544 -0.229 -3.9749999 -0.024899386 0.99954146 -0.017235883 6.2719125e+19
-1.536 -0.229 -3.9719999 -0.018195935 0.99967355 -0.017938374 6.2719125e+19
-1.447 -0.223 -3.9790001 -0.083744019 -0.97069806 0.22523826 6.2719125e+19
-1.4355 -0.223 -3.9734998 -0.0070987009 0.99931616 -0.036287621 6.2719125e+19
-1.342 -0.21699999 -3.9790001 -0.39803734 -0.040934239 0.91645545 6.2719125e+19
-1.335 -0.21600001 -3.9760001 -0.02399111 0.99962032 -0.013551335 6.2719125e+19
-1.327 -0.21600001 -3.9719999 -0.010604054 0.99951655 -0.029227588 6.2719125e+19
-1.237 -0.20999999 -3.9790001 -0.39775974 -0.17774573 0.90010762 6.2719125e+19
-1.2260001 -0.20999999 -3.974 -0.012122066 0.99959725 -0.02565901 6.2719125e+19
-1.132 -0.20299999 -3.98 -0.037021186 0.9990356 0.023607733 6.2719125e+19
-1.125 -0.20299999 -3.9760001 -0.0068588946 -0.99699992 0.07709793 6.2719125e+19
-1.117 -0.20299999 -3.973 -0.05269054 0.99536878 0.080403835 6.2719125e+19
-1.028 -0.197 -3.98 -0.33283001 -0.59171832 0.73422986 6.2719125e+19
-1.0165 -0.197 -3.9745002 -0.0038599223 -0.99750626 0.070472173 6.2719125e+19
-0.92299998 -0.19 -3.98 -0.020875117 -0.99541229 0.093373984 6.2719125e+19
-0.91500002 -0.19 -3.977 -0.11245441 -0.95428401 0.27694044 6.2719125e+19
-0.90799999 -0.19 -3.973 0.013746178 0.99945694 -0.029949285 6.2719125e+19
-0.81800002 -0.184 -3.98 -0.054834306 -0.98354453 0.17214344 6.2719125e+19
-0.80649996 -0.18349999 -3.9749999 -0.10196953 -0.95455158 0.28005996 6.2719125e+19
-0.713 -0.177 -3.98 -0.082339182 0.98913705 0.12177132 6.2719125e+19
-0.70499998 -0.177 -3.977 -0.0063067484 0.99981284 -0.018289361 6.2719125e+19
-0.69800001 -0.177 -3.974 -0.063362129 0.99281323 0.1015239 6.2719125e+19
-0.60100001 -0.171 -3.977 -0.032032706 0.99945331 0.0081934016 6.2719125e+19
-0.59299999 -0.17 -3.974 -0.023274543 0.9995206 -0.020417172 6.2719125e+19
-0.49599999 -0.164 -3.977 0.011441044 0.99966764 -0.023102228 6.2719125e+19
-0.48549998 -0.164 -3.9724998 0.0029371742 -0.99911231 0.042023033 6.2719125e+19
-0.391 -0.15700001 -3.9779999 0.0030172637 -0.99868459 0.051185559 6.2719125e+19
-0.384 -0.15700001 -3.974 -0.098136246 0.98558378 0.13781813 6.2719125e+19
-0.377 -0.15700001 -3.971 -0.016085049 0.99987042 0.00064222165 6.2719125e+19
-0.28600001 -0.15099999 -3.9779999 -0.028202645 -0.99422961 0.10349909 6.2719125e+19
-0.2755 -0.15099999 -3.9724998 -0.072918862 0.99364007 0.085802846 6.2719125e+19
-0.18099999 -0.14399999 -3.9779999 -0.043191966 0.99850905 0.033379789 6.2719125e+19
-0.17399999 -0.14399999 -3.9749999 -0.021443686 0.99976981 0.00063274003 6.2719125e+19
-0.167 -0.14399999 -3.971 -0.13916367 0.95284051 0.26968184 6.2719125e+19
-0.075999998 -0.138 -3.9779999 -0.16014701 0.94906169 0.27135745 6.2719125e+19
-0.066 -0.138 -3.9734998 -0.025599025 -0.99375302 0.10862606 6.2719125e+19
0.028999999 -0.131 -3.9790001 -0.030428823 0.99923784 0.02444916 6.2719125e+19
0.035999998 -0.131 -3.9749999 -0.0028638074 0.99998009 0.0056208 6.2719125e+19
0.041999999 -0.131 -3.9719999 0.00013156967 1 -0.00024852325 6.2719125e+19
0.134 -0.125 -3.9790001 -0.082630895 0.99004 0.11398667 6.2719125e+19
0.14399999 -0.1245 -3.9734998 -0.0072158934 -0.99732596 0.072724946 6.2719125e+19
0.23899999 -0.118 -3.9790001 -0.069101423 0.99201828 0.105474 6.2719125e+19
0.245 -0.118 -3.9760001 -0.024176393 -0.99867165 0.045501668 6.2719125e+19
0.252 -0.118 -3.9719999 -0.25866416 -0.83277214 0.4894726 6.2719125e+19
0.34400001 -0.112 -3.9790001 -0.052768245 0.99770969 0.042317342 6.2719125e+19
0.35350001 -0.111 -3.974 -0.044218265 0.99856931 0.030068325 6.2719125e+19
0.449 -0.105 -3.9790001 0.0074219783 0.99987787 -0.013752188 6.2719125e+19
0.45500001 -0.105 -3.9760001 -0.026149541 0.99852931 0.04749025 6.2719125e+19
0.46200001 -0.105 -3.973 -0.033847399 0.99873996 0.037050966 6.2719125e+19
0.55400002 -0.097999997 -3.98 -0.49715978 0.063818999 0.86530876 6.2719125e+19
0.56299996 -0.097999997 -3.9745002 -0.015558011 0.9998613 -0.0059468648 6.2719125e+19
0.65899998 -0.092 -3.98 -0.012747215 -0.99966794 0.022394676 6.2719125e+19
0.66500002 -0.092 -3.977 -0.039955959 0.99765372 0.055594083 6.2719125e+19
0.671 -0.092 -3.973 -0.022305913 0.99975121 0.00012226211 6.2719125e+19
0.764 -0.085000001 -3.98 -0.046073541 0.99819767 0.03845391 6.2719125e+19
0.773 -0.085000001 -3.9749999 0.0019163664 0.99999237 -0.003418972 6.2719125e+19
0.86900002 -0.079000004 -3.98 -0.22023053 0.89847744 0.37978527 6.2719125e+19
0.875 -0.079000004 -3.977 -0.010229586 0.99991947 -0.0075180731 6.2719125e+19
0.88099998 -0.079000004 -3.974 -0.092756517 -0.97514409 0.20122181 6.2719125e+19
0.98300004 -0.071999997 -3.9755001 -0.022156239 0.99904096 0.037766319 6.2719125e+19
1.085 -0.066 -3.977 -0.014957794 0.99980718 -0.012720441 6.2719125e+19
1.0934999 -0.065499999 -3.9724998 -0.01910086 0.99975991 -0.010734408 6.2719125e+19
1.1930001 -0.059 -3.9759998 -0.032951463 0.99796981 0.054502312 6.2719125e+19
1.201 -0.059 -3.971 -0.0070368582 0.99990851 0.011556564 6.2719125e+19
1.295 -0.052000001 -3.9779999 0.017601743 -0.99959695 0.022269484 6.2719125e+19
1.3034999 -0.052000001 -3.9724998 -0.018238554 0.99980509 -0.0075563625 6.2719125e+19
1.403 -0.046 -3.9765 0.0048983018 0.99995917 -0.0075984737 6.2719125e+19
1.411 -0.046 -3.971 0 1 0 6.2719125e+19
1.505 -0.039000001 -3.9779999 0.0033348573 0.99998093 -0.0051883827 6.2719125e+19
1.5135 -0.039000001 -3.973 -0.16622899 -0.95146656 0.25899673 6.2719125e+19
1.6125 -0.033 -3.977 -0.0045730132 0.99996406 0.0071453331 6.2719125e+19
1.6210001 -0.033 -3.9719999 -0.0075282874 -0.99990362 0.011666577 6.2719125e+19
1.715 -0.026000001 -3.9790001 -0.0077940882 -0.99989939 0.011849595 6.2719125e+19
1.723 -0.026000001 -3.9734998 -0.0010041741 0.99999833 0.0015133494 6.2719125e+19
1.8225 -0.02 -3.9775 -0.0032008595 -0.99998319 0.0048352806 6.2719125e+19
1.83 -0.02 -3.9719999 -0.0042014685 0.99997044 0.0064408826 6.2719125e+19
1.9324999 -0.013 -3.974 -0.0030312014 -0.99998623 0.0042783958 6.2719125e+19
-1.947 -0.255 -3.967 0.0059503783 0.99775863 -0.066650756 6.2719125e+19
-1.938 -0.255 -3.964 -0.36169454 0.31872803 0.87612182 6.2719125e+19
-1.9299999 -0.255 -3.961 -0.018730734 -0.99480718 0.10003906 6.2719125e+19
-1.842 -0.249 -3.9679999 -0.039352596 0.99873781 0.031210978 6.2719125e+19
-1.834 -0.248 -3.964 -0.055003464 0.99705648 0.053413767 6.2719125e+19
-1.826 -0.248 -3.961 -0.053952426 0.99604785 0.07055328 6.2719125e+19
-1.737 -0.242 -3.9679999 -0.016893953 0.99854219 -0.0512661 6.2719125e+19
-1.7249999 -0.242 -3.9629998 -0.10388827 0.97724491 0.18493113 6.2719125e+19
-1.633 -0.236 -3.9679999 -0.010975489 0.99906462 -0.041825391 6.2719125e+19
-1.625 -0.235 -3.9649999 -0.085592791 0.98772544 0.13066131 6.2719125e+19
-1.617 -0.235 -3.961 0.0024082272 0.99884099 -0.048071217 6.2719125e+19
-1.528 -0.229 -3.9679999 -0.066402249 -0.97348595 0.21889688 6.2719125e+19
-1.516 -0.229 -3.9635 -0.0328428 0.99937099 0.013376308 6.2719125e+19
-1.424 -0.223 -3.9690001 -0.026001036 -0.99173379 0.12565093 6.2719125e+19
-1.416 -0.222 -3.9649999 -0.054424837 -0.97916335 0.19564518 6.2719125e+19
-1.408 -0.222 -3.9619999 -0.057887763 0.99477977 0.084037177 6.2719125e+19
-1.3150001 -0.21600001 -3.967 -0.030660957 0.99951696 0.0050658546 6.2719125e+19
-1.304 -0.21600001 -3.9619999 -0.34909269 -0.43313453 0.83098066 6.2719125e+19
-1.214 -0.20900001 -3.9690001 -0.038590711 0.99884415 0.02865375 6.2719125e+19
-1.207 -0.20900001 -3.9660001 0.0051124976 0.99852717 -0.054011907 6.2719125e+19
-1.199 -0.20900001 -3.9619999 -0.16509162 0.92569113 0.34035388 6.2719125e+19
-1.1059999 -0.20299999 -3.9675002 -0.011841662 -0.99820131 0.05876958 6.2719125e+19
-1.095 -0.20299999 -3.9619999 -0.042185396 0.99853474 0.033893362 6.2719125e+19
-1.005 -0.19599999 -3.9690001 -0.044716265 0.9982307 0.039190818 6.2719125e+19
-0.99800003 -0.19599999 -3.9660001 -0.012582874 -0.99735337 0.071609125 6.2719125e+19
-0.99000001 -0.19599999 -3.9630001 -0.014152534 -0.99777859 0.065096751 6.2719125e+19
-0.89649999 -0.19 -3.9679999 -0.38787243 0.40282029 0.8290301 6.2719125e+19
-0.88599998 -0.19 -3.9630001 -0.03860357 0.99894714 0.024788119 6.2719125e+19
-0.796 -0.183 -3.97 -0.041593857 0.99826854 0.041591864 6.2719125e+19
-0.7845 -0.183 -3.9650002 0.0042793276 0.9996562 -0.025865 6.2719125e+19
-0.69099998 -0.177 -3.97 -0.0062360074 -0.99792755 0.064045273 6.2719125e+19
-0.68400002 -0.177 -3.967 -0.19295102 0.91828871 0.34571043 6.2719125e+19
-0.67699999 -0.176 -3.9630001 -0.014485167 0.99942517 -0.030650621 6.2719125e+19
-0.58600003 -0.17 -3.97 -0.21005487 0.89685065 0.38927606 6.2719125e+19
-0.57550001 -0.17 -3.9654999 -0.010765988 -0.99858856 0.052009266 6.2719125e+19
-0.47499999 -0.164 -3.967 -0.066662714 -0.97778147 0.19874476 6.2719125e+19
-0.46799999 -0.163 -3.964 -0.028715644 0.99958038 -0.0038178216 6.2719125e+19
-0.36650002 -0.15700001 -3.9654999 -0.3586992 -0.56152719 0.74566883 6.2719125e+19
-0.35600001 -0.15700001 -3.961 -0.011300918 0.99959266 -0.026206113 6.2719125e+19
-0.26499999 -0.15000001 -3.9679999 -0.10043892 0.98491859 0.1408806 6.2719125e+19
-0.255 -0.15000001 -3.9625001 -0.022472477 -0.99619341 0.084223576 6.2719125e+19
-0.161 -0.14399999 -3.9679999 -0.052424368 0.99478787 0.087456815 6.2719125e+19
-0.154 -0.14399999 -3.964 -0.021960223 -0.99634266 0.082578287 6.2719125e+19
-0.147 -0.14399999 -3.961 0.0059207538 -0.9992736 0.037645534 6.2719125e+19
-0.056000002 -0.13699999 -3.9679999 -0.033764549 0.99940175 0.007495279 6.2719125e+19
-0.046 -0.13699999 -3.9629998 -0.065343782 0.99387157 0.089159608 6.2719125e+19
0.048999999 -0.131 -3.9679999 -0.19156657 -0.9009999 0.38923189 6.2719125e+19
0.055 -0.131 -3.9649999 -0.0062271357 0.9998998 -0.012712516 6.2719125e+19
0.061999999 -0.131 -3.9619999 -0.070114717 -0.98141187 0.17864698 6.2719125e+19
0.154 -0.124 -3.9690001 -0.10060634 0.98435414 0.14465575 6.2719125e+19
0.16299999 -0.124 -3.9635 -0.0046316357 0.99995238 -0.0085853692 6.2719125e+19
0.25799999 -0.118 -3.9690001 -0.018815784 -0.99829006 0.055343986 6.2719125e+19
0.26499999 -0.118 -3.9649999 -0.033966511 0.9989863 0.029540766 6.2719125e+19
0.271 -0.118 -3.9619999 -0.022540271 0.99974424 -0.0018372958 6.2719125e+19
0.366 -0.111 -3.9675002 -0.18538445 -0.90687096 0.37844118 6.2719125e+19
0.37599999 -0.111 -3.9619999 0 1 0 6.2719125e+19
0.46799999 -0.105 -3.9690001 -0.041126937 0.99789292 0.050182156 6.2719125e+19
0.47400001 -0.105 -3.9660001 -0.025332471 -0.99588782 0.086981818 6.2719125e+19
0.47999999 -0.105 -3.9619999 -0.022619478 0.99972612 -0.0060063894 6.2719125e+19
0.57550001 -0.097999997 -3.9675002 0 1 0 6.2719125e+19
0.58499998 -0.097999997 -3.9630001 0.0014076905 0.99999577 -0.0025436433 6.2719125e+19
0.67699999 -0.092 -3.97 -0.019620175 0.99979651 -0.0046803625 6.2719125e+19
0.68599999 -0.091499999 -3.9645 -0.00017292167 -0.99845582 0.055551089 6.2719125e+19
0.78499997 -0.085000001 -3.9685001 -0 1 -0 6.2719125e+19
0.79400003 -0.085000001 -3.9630001 0.010370606 0.99978036 -0.018214196 6.2719125e+19
0.88700002 -0.079000004 -3.97 -0.023997832 0.99969012 -0.0066069737 6.2719125e+19
0.89600003 -0.078000002 -3.9650002 -0.0038209595 -0.99791682 0.064401194 6.2719125e+19
0.99449998 -0.071999997 -3.9685001 -0.011035779 -0.99976915 0.018432248 6.2719125e+19
1.003 -0.071999997 -3.964 0 1 0 6.2719125e+19
1.105 -0.064999998 -3.9654999 -0.069975577 0.99450916 0.077813856 6.2719125e+19
1.207 -0.059 -3.967 -0.0090894755 0.99984533 0.015054443 6.2719125e+19
1.215 -0.059 -3.9625001 -0.015820608 -0.99954301 0.025759192 6.2719125e+19
1.3145001 -0.052000001 -3.9660001 -0.0047448725 0.99990606 -0.012852382 6.2719125e+19
1.323 -0.052000001 -3.961 -0.0089432178 0.9998613 0.014049688 6.2719125e+19
1.416 -0.046 -3.9679999 0 1 0 6.2719125e+19
1.4245 -0.046 -3.9625001 0.00085910707 0.99999875 -0.0013423548 6.2719125e+19
1.5235 -0.039000001 -3.9664998 0.00038387865 0.99999976 -0.00062142732 6.2719125e+19
1.5319999 -0.039000001 -3.961 -0.15407762 -0.95808512 0.24152215 6.2719125e+19
1.626 -0.033 -3.9679999 0.00092978647 0.99999857 -0.0014173572 6.2719125e+19
1.6335001 -0.033 -3.9635 -0.42004326 0.64164084 0.64176375 6.2719125e+19
1.7335 -0.026000001 -3.967 -0.0085103847 0.99988097 0.012868555 6.2719125e+19
1.7410001 -0.026000001 -3.9619999 -0.018568885 -0.99944681 0.027590871 6.2719125e+19
1.836 -0.02 -3.9690001 -0.0042014685 0.99997044 0.0064408826 6.2719125e+19
1.8434999 -0.02 -3.9635 -0.00046246269 0.99999964 0.00071389868 6.2719125e+19
1.9425001 -0.013 -3.9675002 -0.0024068926 -0.999991 0.0034973081 6.2719125e+19
1.95 -0.013 -3.9619999 -0.0015766146 0.99999613 0.0023119759 6.2719125e+19
-1.9220001 -0.255 -3.957 -0.021529984 0.9997133 -0.0104762 6.2719125e+19
-1.914 -0.25400001 -3.954 -0.036309827 -0.98763603 0.15250154 6.2719125e+19
-1.905 -0.25400001 -3.951 -0.34850252 -0.3578859 0.86629307 6.2719125e+19
-1.818 -0.248 -3.9579999 -0.080435574 -0.96246576 0.25921002 6.2719125e+19
-1.8050001 -0.248 -3.9524999 -0.018741764 0.99956191 -0.022906726 6.2719125e+19
-1.7130001 -0.241 -3.9579999 -0.025187477 0.99959385 -0.013334431 6.2719125e+19
-1.705 -0.241 -3.954 -0.023390358 0.99971944 0.0037202553 6.2719125e+19
-1.697 -0.241 -3.951 -0.052086364 0.99590129 0.073943742 6.2719125e+19
-1.605 -0.235 -3.9565001 -0.19418167 -0.84733742 0.49428001 6.2719125e+19
-1.5930001 -0.235 -3.951 -0.015880812 0.99957269 -0.02453956 6.2719125e+19
-1.505 -0.228 -3.9579999 -0.0028097518 0.99863386 -0.052179661 6.2719125e+19
-1.497 -0.228 -3.9549999 -0.16228448 -0.89554501 0.41432226 6.2719125e+19
-1.489 -0.228 -3.951 -0.39822716 -0.0065776403 0.91726327 6.2719125e+19
-1.3959999 -0.222 -3.9565001 -0.25579479 0.79495752 0.55010146 6.2719125e+19
-1.385 -0.222 -3.9519999 -0.015441925 0.99950486 -0.027416036 6.2719125e+19
-1.296 -0.215 -3.9590001 -0.016107284 0.99949431 -0.027418541 6.2719125e+19
-1.2845 -0.215 -3.9534998 -0.19347848 -0.86098444 0.47039536 6.2719125e+19
-1.191 -0.20900001 -3.9590001 -0.04043233 0.99753106 0.057419147 6.2719125e+19
-1.184 -0.20900001 -3.9549999 -0.004436973 0.99948299 -0.031844232 6.2719125e+19
-1.176 -0.20900001 -3.9519999 -0.047390223 0.99782848 0.045744758 6.2719125e+19
-1.0835 -0.20200001 -3.9575 -0.079149872 0.98874325 0.12697303 6.2719125e+19
-1.072 -0.20200001 -3.9519999 -0.010215624 -0.99794888 0.063194819 6.2719125e+19
-0.98299998 -0.19599999 -3.9590001 -0.013750738 0.99990344 -0.0020230322 6.2719125e+19
-0.97500002 -0.19599999 -3.9560001 -0.0050022579 -0.99853861 0.053811204 6.2719125e+19
-0.96799999 -0.19599999 -3.9530001 -0.018085053 0.99964756 -0.019434428 6.2719125e+19
-0.87450004 -0.189 -3.9580002 -0.10653596 0.98043138 0.16554286 6.2719125e+19
-0.86400002 -0.189 -3.9530001 -0.075744718 0.9899838 0.1191415 6.2719125e+19
-0.77399999 -0.183 -3.96 -0.010897829 -0.99833667 0.056613799 6.2719125e+19
-0.76700002 -0.183 -3.9560001 -0.03489517 0.99929756 0.013663284 6.2719125e+19
-0.759 -0.183 -3.9530001 -0.046232518 0.99815428 0.039376438 6.2719125e+19
-0.66550004 -0.176 -3.9584999 -0.034542549 0.99908972 0.025031738 6.2719125e+19
-0.65499997 -0.176 -3.9530001 0.012439901 0.99957591 -0.02632861 6.2719125e+19
-0.565 -0.17 -3.96 -0.014927341 0.99985081 -0.0086849667 6.2719125e+19
-0.55449998 -0.17 -3.9549999 -0.025796706 0.9996559 -0.004751435 6.2719125e+19
-0.461 -0.163 -3.96 -0.0061579365 0.9993971 -0.034171168 6.2719125e+19
-0.454 -0.163 -3.957 -0.00059558579 0.99931639 -0.036965419 6.2719125e+19
-0.447 -0.163 -3.954 0 1 0 6.2719125e+19
-0.34549999 -0.15650001 -3.9555001 -0.040125418 0.99894029 0.022541527 6.2719125e+19
-0.33500001 -0.156 -3.951 -0.069727443 -0.98038965 0.18432114 6.2719125e+19
-0.245 -0.15000001 -3.957 0.0030182295 0.99997741 -0.0060028657 6.2719125e+19
-0.23450001 -0.15000001 -3.9524999 -0.092659764 -0.97144401 0.21842784 6.2719125e+19
-0.13699999 -0.1435 -3.9559999 -0.085859694 -0.96988875 0.22791208 6.2719125e+19
-0.127 -0.14300001 -3.951 -0.023806257 0.99971175 -0.0031278699 6.2719125e+19
-0.035999998 -0.13699999 -3.9579999 -8.4853993e-05 1 0.00017441344 6.2719125e+19
-0.026000001 -0.13699999 -3.9530001 -0.06210671 -0.98823279 0.13978077 6.2719125e+19
0.068000004 -0.131 -3.9579999 0.0012346759 -0.9988963 0.046954434 6.2719125e+19
0.075000003 -0.13 -3.9549999 -0.013230359 0.99962896 -0.023807446 6.2719125e+19
0.082000002 -0.13 -3.951 -0.0067963125 0.99954164 -0.029501352 6.2719125e+19
0.176 -0.124 -3.9565001 -0.0059253788 0.99992049 0.011137723 6.2719125e+19
0.186 -0.124 -3.9519999 -0.015717726 0.9998619 -0.0054134484 6.2719125e+19
0.27700001 -0.118 -3.9590001 -0.052657738 0.99758857 0.045213971 6.2719125e+19
0.28400001 -0.117 -3.9549999 -0.029930167 0.99954849 0.002646866 6.2719125e+19
0.28999999 -0.117 -3.9519999 -0.039899673 0.99879962 0.028413029 6.2719125e+19
0.38499999 -0.111 -3.957 -0.037476126 0.99690068 0.069170311 6.2719125e+19
0.39399999 -0.111 -3.9519999 -0.0023947158 0.99972039 -0.023521941 6.2719125e+19
0.486 -0.104 -3.9590001 -0.023834372 0.99964982 -0.011493688 6.2719125e+19
0.49550003 -0.104 -3.954 -0.029008688 0.99956751 0.0048331646 6.2719125e+19
0.59399998 -0.097999997 -3.9575 0 1 0 6.2719125e+19
0.60299999 -0.097999997 -3.9530001 -0.011829644 0.99991894 -0.0047107372 6.2719125e+19
0.69499999 -0.090999998 -3.96 -0.023534171 0.99971032 -0.0050486 6.2719125e+19
0.704 -0.090999998 -3.9545002 -0.06355907 -0.98939931 0.13057245 6.2719125e+19
0.80299997 -0.085000001 -3.9580002 -0.00096845586 0.99999821 0.0016083284 6.2719125e+19
0.81199998 -0.085000001 -3.9530001 -0.04252677 -0.99338859 0.10663338 6.2719125e+19
0.90399998 -0.078000002 -3.96 0.011359697 -0.99965918 0.023505874 6.2719125e+19
0.91299999 -0.078000002 -3.9549999 -0.016449032 0.99947637 0.027862428 6.2719125e+19
1.0089999 -0.071999997 -3.96 -0.011218113 -0.99975842 0.01890252 6.2719125e+19
1.015 -0.071999997 -3.957 -0.011218113 -0.99975842 0.01890252 6.2719125e+19
1.02 -0.071999997 -3.9530001 -0.010457253 -0.9990927 0.041284647 6.2719125e+19
1.1159999 -0.064999998 -3.9584999 -0.018489383 0.99967211 0.017713908 6.2719125e+19
1.125 -0.064999998 -3.954 -0.074932121 -0.98920494 0.12593155 6.2719125e+19
1.2265 -0.059 -3.9555001 0.0016106472 0.99999499 -0.0027148537 6.2719125e+19
1.3279999 -0.052000001 -3.957 -0.015437689 0.99957538 0.024710419 6.2719125e+19
1.336 -0.052000001 -3.9524999 0 1 0 6.2719125e+19
1.4349999 -0.046 -3.9559999 -0.0046321829 0.99998456 -0.0030586447 6.2719125e+19
1.443 -0.046 -3.951 -0.37282664 -0.68752807 0.62314159 6.2719125e+19
1.5369999 -0.039000001 -3.9579999 -0.010614983 -0.99980712 0.016523324 6.2719125e+19
1.5450001 -0.039000001 -3.9530001 0 1 0 6.2719125e+19
1.6445 -0.033 -3.9565001 -0.050932717 -0.99487078 0.087395497 6.2719125e+19
1.652 -0.033 -3.951 0.012145307 -0.9997679 0.01779284 6.2719125e+19
1.7460001 -0.026000001 -3.9579999 -0.036105197 0.99790186 0.053742424 6.2719125e+19
1.7535 -0.026000001 -3.9534998 -0.014522834 0.99967068 0.021157367 6.2719125e+19
1.8534999 -0.02 -3.957 -0.55502027 0.057408869 0.82985342 6.2719125e+19
1.8609999 -0.02 -3.9519999 -0.08256384 0.99235719 0.091707855 6.2719125e+19
1.955 -0.013 -3.9590001 -0.0015766146 0.99999613 0.0023119759 6.2719125e+19
1.96 -0.013 -3.9549999 -0.0040183738 -0.99997425 0.0059474069 6.2719125e+19
-1.993 -0.25999999 -3.944 -0.24872269 0.78891701 0.56191367 6.2719125e+19
-1.897 -0.25400001 -3.947 -0.03854686 -0.9835937 0.17623131 6.2719125e+19
-1.8890001 -0.25400001 -3.944 -0.076223455 -0.96724254 0.24214038 6.2719125e+19
-1.793 -0.24699999 -3.947 -0.10338426 0.97823513 0.17991051 6.2719125e+19
-1.785 -0.24699999 -3.944 -0.022040181 -0.99437433 0.10360469 6.2719125e+19
-1.777 -0.24699999 -3.941 -0.15631334 0.92920488 0.33487976 6.2719125e+19
-1.6849999 -0.241 -3.9460001 -0.066097967 -0.96989083 0.23439881 6.2719125e+19
-1.673 -0.23999999 -3.941 -0.060588866 0.99457783 0.084521815 6.2719125e+19
-1.585 -0.234 -3.948 -0.0436952 0.99821246 0.040774435 6.2719125e+19
-1.577 -0.234 -3.944 0.0028524681 0.99878734 -0.049149621 6.2719125e+19
-1.569 -0.234 -3.941 -0.034893014 0.99920982 0.019032424 6.2719125e+19
-1.4809999 -0.228 -3.948 -0.17908986 0.91024911 0.37332743 6.2719125e+19
-1.473 -0.228 -3.9449999 -0.0034806938 -0.99766314 0.0682353 6.2719125e+19
-1.465 -0.227 -3.941 -0.038426396 0.99907666 0.019213418 6.2719125e+19
-1.377 -0.221 -3.948 -0.31431296 -0.56944221 0.75956756 6.2719125e+19
-1.365 -0.221 -3.9435 -0.033618689 0.99936479 0.011826822 6.2719125e+19
-1.273 -0.215 -3.9489999 -0.053137932 -0.98698276 0.15179345 6.2719125e+19
-1.265 -0.215 -3.9449999 -0.020225922 0.99978179 -0.0052220752 6.2719125e+19
-1.258 -0.215 -3.9419999 -0.021015061 -0.99450952 0.10251452 6.2719125e+19
-1.165 -0.208 -3.947 -0.052410301 -0.98175246 0.1827985 6.2719125e+19
-1.154 -0.208 -3.9419999 -0.026113829 0.9996171 -0.0091533549 6.2719125e+19
-1.0650001 -0.20200001 -3.9489999 -0.012041005 0.99985892 -0.011707525 6.2719125e+19
-1.057 -0.20200001 -3.9460001 -0.021530975 0.99976736 -0.0013125599 6.2719125e+19
-1.05 -0.20200001 -3.9419999 -0.053928908 -0.98122531 0.18517196 6.2719125e+19
-0.95649999 -0.19499999 -3.9475 -0.022872183 0.99970651 -0.0079794684 6.2719125e+19
-0.94599998 -0.19499999 -3.9419999 -0.4219206 0.20776565 0.88250571 6.2719125e+19
-0.85600001 -0.189 -3.9489999 -0.078660212 0.98917341 0.12388905 6.2719125e+19
-0.84549999 -0.189 -3.9445 -0.033370297 0.99939668 0.0096261334 6.2719125e+19
-0.75199997 -0.182 -3.95 -0.026138203 0.99962604 -0.0080328779 6.2719125e+19
-0.745 -0.182 -3.9460001 -0.024006294 0.9997105 -0.0016153677 6.2719125e+19
-0.73799998 -0.182 -3.9430001 -0.012874489 0.99990851 -0.0041642375 6.2719125e+19
-0.64450002 -0.176 -3.948 -0.0048071896 -0.99877721 0.049203649 6.2719125e+19
-0.634 -0.176 -3.9430001 -0.012218335 0.99920291 -0.03800505 6.2719125e+19
-0.54400003 -0.169 -3.95 0.0018743094 -0.99842739 0.056027722 6.2719125e+19
-0.537 -0.169 -3.947 -0.0026621528 0.99927396 -0.038005173 6.2719125e+19
-0.52999997 -0.169 -3.9430001 -0.0053183041 0.99975175 -0.021635311 6.2719125e+19
-0.43650001 -0.163 -3.9485002 -0.033829093 -0.99380881 0.1058286 6.2719125e+19
-0.426 -0.163 -3.944 -0.073964223 -0.97569543 0.20627111 6.2719125e+19
-0.32550001 -0.156 -3.9454999 -0.0075295609 0.99996126 -0.0045610471 6.2719125e+19
-0.22400001 -0.15000001 -3.947 -0.016183527 0.99964172 -0.021318618 6.2719125e+19
-0.21799999 -0.15000001 -3.944 -0.0024640977 -0.99837327 0.056963425 6.2719125e+19
-0.211 -0.149 -3.941 -0.12097584 0.97595334 0.18132827 6.2719125e+19
-0.117 -0.14300001 -3.9460001 -0.054112319 -0.9902885 0.12806439 6.2719125e+19
-0.107 -0.14300001 -3.941 -0.086118549 -0.98126376 0.17235154 6.2719125e+19
-0.016000001 -0.13699999 -3.948 -0.074428052 -0.9779343 0.19520542 6.2719125e+19
-0.0065000001 -0.1365 -3.9425001 -0.056913782 0.99703634 0.051763456 6.2719125e+19
0.088 -0.13 -3.948 -0.010887214 0.99984264 -0.014006441 6.2719125e+19
0.094999999 -0.13 -3.9449999 -0.048464607 -0.99231839 0.11382203 6.2719125e+19
0.101 -0.13 -3.941 -0 1 -0 6.2719125e+19
0.1955 -0.124 -3.9464998 -0.025103973 0.99961835 -0.011528801 6.2719125e+19
0.205 -0.123 -3.9419999 -0.061834205 -0.98353916 0.16978599 6.2719125e+19
0.296 -0.117 -3.948 -0.025743099 0.99965996 0.0041494668 6.2719125e+19
0.30599999 -0.117 -3.9435 -0.022720238 0.99882352 0.042841587 6.2719125e+19
0.40399998 -0.111 -3.947 -0.03496794 0.99925959 0.016046586 6.2719125e+19
0.41299999 -0.111 -3.9419999 -0.027212163 0.99962002 -0.0044007911 6.2719125e+19
0.505 -0.104 -3.9489999 -0.06354405 -0.98773015 0.14265789 6.2719125e+19
0.514 -0.104 -3.944 -0.0012390842 0.9999969 0.0021776441 6.2719125e+19
0.60900003 -0.097999997 -3.9489999 -0.001105804 0.99972433 -0.023452159 6.2719125e+19
0.61500001 -0.097999997 -3.9460001 -0.021395596 -0.99618524 0.084600441 6.2719125e+19
0.62099999 -0.097999997 -3.9419999 -0.018816018 0.99959475 -0.021359222 6.2719125e+19
0.71599996 -0.090999998 -3.9475 -0.013883373 -0.9996084 0.0242959 6.2719125e+19
0.72500002 -0.090999998 -3.9430001 -0.015298983 0.99950719 0.027410679 6.2719125e+19
0.81699997 -0.085000001 -3.95 0.00062489836 -0.99951547 0.031121217 6.2719125e+19
0.82599998 -0.085000001 -3.9445 -0.02329386 -0.99554372 0.09137857 6.2719125e+19
0.92499995 -0.078000002 -3.948 0.004787303 0.99995482 -0.0082085086 6.2719125e+19
0.93300003 -0.078000002 -3.9430001 -0.020219291 -0.99919069 0.034775902 6.2719125e+19
1.026 -0.071999997 -3.95 -0.044130988 0.99805862 0.043948326 6.2719125e+19
1.0344999 -0.071999997 -3.9450002 -0.022568021 0.99973869 -0.0036338698 6.2719125e+19
1.133 -0.064999998 -3.9485002 0.0034838826 0.99997658 -0.0058856504 6.2719125e+19
1.142 -0.064999998 -3.944 0 1 0 6.2719125e+19
1.235 -0.059 -3.95 0.0096999239 -0.99976778 0.019242628 6.2719125e+19
1.243 -0.059 -3.9454999 -0.025504149 0.99963593 -0.0088003334 6.2719125e+19
1.344 -0.052000001 -3.947 -0.00090856943 0.99999845 0.0015182673 6.2719125e+19
1.3525 -0.052000001 -3.9425001 -0.013169339 0.99967808 0.021684851 6.2719125e+19
1.449 -0.046 -3.948 -0.0061323312 -0.99874574 0.049691461 6.2719125e+19
1.4565001 -0.045500003 -3.9425001 0.010232473 -0.99930334 0.035892259 6.2719125e+19
1.5555 -0.039000001 -3.9460001 0.0027886666 0.99998689 -0.0043060291 6.2719125e+19
1.563 -0.039000001 -3.941 -0.006566565 0.99992782 0.01006496 6.2719125e+19
1.6569999 -0.033 -3.948 0.01269077 -0.99977601 0.016940333 6.2719125e+19
1.6645 -0.032499999 -3.9429998 -0.020445202 0.9997046 -0.013139163 6.2719125e+19
1.7635 -0.026000001 -3.9464998 -0.012103982 0.99976557 0.017949563 6.2719125e+19
1.771 -0.026000001 -3.941 0.0028580993 0.99998623 -0.0044065295 6.2719125e+19
1.8660001 -0.02 -3.948 -0.07330247 0.99474829 0.071432538 6.2719125e+19
1.8735001 -0.02 -3.9435 -0.032371461 0.99947399 0.0019436143 6.2719125e+19
1.98 -0.013 -3.9419999 0 1 0 6.2719125e+19
-1.985 -0.25999999 -3.9400001 -0.35116714 0.36821523 0.86087114 6.2719125e+19
-1.977 -0.25999999 -3.937 -0.01035712 -0.994295 0.10616165 6.2719125e+19
-1.9680001 -0.259 -3.934 -0.11493018 -0.93220657 0.34319383 6.2719125e+19
-1.881 -0.25299999 -3.9400001 -0.0019886158 0.99831772 -0.057946101 6.2719125e+19
-1.873 -0.25299999 -3.937 -0.0095415898 -0.99705321 0.076118194 6.2719125e+19
-1.865 -0.25299999 -3.934 -0.031175023 -0.9895485 0.14079006 6.2719125e+19
-1.7650001 -0.24699999 -3.9355001 -0.022669207 0.99962139 -0.015596297 6.2719125e+19
-1.753 -0.24600001 -3.931 -0.060639121 0.99450946 0.085286334 6.2719125e+19
-1.665 -0.23999999 -3.938 -0.011388734 0.99980789 -0.015952013 6.2719125e+19
-1.6569999 -0.23999999 -3.934 -0.062606983 -0.97999287 0.18892916 6.2719125e+19
-1.649 -0.23999999 -3.931 -0.085222334 -0.96354359 0.25361589 6.2719125e+19
-1.561 -0.234 -3.938 -0.023024721 0.99973333 0.0017599941 6.2719125e+19
-1.553 -0.234 -3.934 -0.031813122 0.99938267 0.014901816 6.2719125e+19
-1.546 -0.233 -3.931 -0.056222256 0.99650681 0.061751388 6.2719125e+19
-1.4579999 -0.227 -3.938 -0.093979619 -0.95806533 0.27070025 6.2719125e+19
-1.4460001 -0.227 -3.9330001 -0.0073581655 -0.9977327 0.066898212 6.2719125e+19
-1.354 -0.221 -3.938 -0.011614131 0.99955589 -0.027443707 6.2719125e+19
-1.346 -0.221 -3.9349999 -0.0099606747 0.99880236 -0.047902308 6.2719125e+19
-1.3380001 -0.22 -3.9319999 -0.012879268 0.9994306 -0.031186089 6.2719125e+19
-1.2460001 -0.214 -3.9365001 -0.026998186 0.99963373 -0.0018731907 6.2719125e+19
-1.235 -0.214 -3.9319999 -0.055402871 0.9968074 0.057494022 6.2719125e+19
-1.146 -0.208 -3.9389999 -0.03180692 -0.99113244 0.12901463 6.2719125e+19
-1.135 -0.20750001 -3.9334998 -0.33740094 0.61400002 0.71355772 6.2719125e+19
-1.0420001 -0.20100001 -3.9389999 -0.0049977223 -0.99746275 0.071014747 6.2719125e+19
-1.035 -0.20100001 -3.9360001 -0.023099875 -0.99328846 0.11333347 6.2719125e+19
-1.027 -0.20100001 -3.9319999 -0.071363918 -0.9787128 0.19242772 6.2719125e+19
-0.93449998 -0.19499999 -3.9375 -0.085835002 0.98517138 0.14855887 6.2719125e+19
-0.92400002 -0.19499999 -3.9319999 -0.020168604 -0.99378246 0.10949749 6.2719125e+19
-0.83399999 -0.18799999 -3.9389999 -0.07184086 0.99282914 0.095546491 6.2719125e+19
-0.82700002 -0.18799999 -3.9360001 -0.0046992181 -0.99854988 0.053629026 6.2719125e+19
-0.81999999 -0.18799999 -3.9330001 -0.0055172839 0.99975723 -0.021329768 6.2719125e+19
-0.73100001 -0.182 -3.9400001 -0.023246424 0.99958515 0.017004261 6.2719125e+19
-0.72299999 -0.182 -3.9360001 -0.010342025 -0.99786657 0.064462319 6.2719125e+19
-0.71600002 -0.182 -3.9330001 -0.060141701 0.99581409 0.068827666 6.2719125e+19
-0.62699997 -0.175 -3.9400001 -0.016300863 -0.99487627 0.099776924 6.2719125e+19
-0.616 -0.175 -3.9345002 -0.14966814 0.94684225 0.28476185 6.2719125e+19
-0.523 -0.169 -3.9400001 0.00015580354 0.99947917 -0.032269694 6.2719125e+19
-0.51599997 -0.169 -3.937 -0.087801039 0.98740745 0.13159545 6.2719125e+19
-0.509 -0.169 -3.9330001 -0.0064661009 -0.99695277 0.07773985 6.2719125e+19
-0.41549999 -0.162 -3.9384999 -0.057856087 0.99649459 0.060425397 6.2719125e+19
-0.405 -0.162 -3.9330001 -0.0084773125 -0.99842131 0.055524983 6.2719125e+19
-0.315 -0.156 -3.9400001 -0 1 -0 6.2719125e+19
-0.30449998 -0.156 -3.9355001 -0.046091661 -0.98993546 0.13380338 6.2719125e+19
-0.204 -0.149 -3.937 -0.14591826 0.95941949 0.24129234 6.2719125e+19
-0.19400001 -0.149 -3.9324999 -0.091308415 0.98369658 0.1549316 6.2719125e+19
-0.097000003 -0.14300001 -3.9359999 -0.015247883 0.99984032 -0.0093224468 6.2719125e+19
-0.086999997 -0.14300001 -3.931 -0.017714581 0.99965334 -0.019479778 6.2719125e+19
0.0040000002 -0.13600001 -3.938 -0.019995889 -0.9958033 0.08930853 6.2719125e+19
0.0135 -0.13600001 -3.9324999 -0.00072433637 0.99982136 -0.01888573 6.2719125e+19
0.107 -0.13 -3.938 -0.0071170619 -0.99939805 0.033955429 6.2719125e+19
0.114 -0.13 -3.9349999 -0.041884992 -0.99244756 0.11529705 6.2719125e+19
0.12 -0.13 -3.931 -0.0078561474 0.99952674 -0.029741304 6.2719125e+19
0.2145 -0.123 -3.9365001 -0.014401526 0.9998194 -0.012397073 6.2719125e+19
0.22400001 -0.123 -3.931 -0.023750527 0.99875927 0.043770496 6.2719125e+19
0.315 -0.117 -3.938 -0.0051408992 0.99994004 0.0096663376 6.2719125e+19
0.32499999 -0.117 -3.9334998 -0.041696932 -0.99429232 0.098204926 6.2719125e+19
0.419 -0.11 -3.9389999 -0.018438868 0.99973905 -0.013480869 6.2719125e+19
0.42500001 -0.11 -3.9349999 -0.014499153 0.99978596 -0.014763712 6.2719125e+19
0.43200001 -0.11 -3.9319999 -0.014381062 0.99989522 0.0016231117 6.2719125e+19
0.52600002 -0.104 -3.9369998 -0.0098076519 0.99980116 0.017361706 6.2719125e+19
0.53500003 -0.104 -3.9319999 -0.14686008 0.96142805 0.23256874 6.2719125e+19
0.62699997 -0.097000003 -3.9389999 -0.017807437 0.99957341 -0.023150554 6.2719125e+19
0.63600004 -0.097000003 -3.934 -0.02284742 0.99970669 -0.0080386056 6.2719125e+19
0.73399997 -0.090999998 -3.9375 0.0069799451 0.99989551 -0.012658543 6.2719125e+19
0.74299997 -0.090999998 -3.9330001 -0.011613965 0.99991894 -0.0052179997 6.2719125e+19
0.83499998 -0.083999999 -3.9400001 0.014052005 -0.99956554 0.025908086 6.2719125e+19
0.84399998 -0.083999999 -3.9345002 -0.095142178 0.98685062 0.13066657 6.2719125e+19
0.93900001 -0.078000002 -3.9400001 0 1 0 6.2719125e+19
0.94499999 -0.078000002 -3.9360001 0 1 0 6.2719125e+19
0.95099998 -0.078000002 -3.9330001 -0.027853016 0.99908674 0.032404076 6.2719125e+19
1.046 -0.071000002 -3.9384999 -0.019231007 -0.99703377 0.074524239 6.2719125e+19
1.054 -0.071000002 -3.9330001 -0.009948995 0.99985212 -0.01402014 6.2719125e+19
1.147 -0.064999998 -3.9400001 -0 1 -0 6.2719125e+19
1.1554999 -0.064999998 -3.9349999 -0 1 -0 6.2719125e+19
1.2539999 -0.057999998 -3.9384999 -0.021966573 0.99968505 -0.012139063 6.2719125e+19
1.262 -0.057999998 -3.934 -0.052050497 0.99714142 0.054769572 6.2719125e+19
1.3635 -0.052000001 -3.9355001 -0.028672548 -0.99848312 0.047003444 6.2719125e+19
1.3710001 -0.052000001 -3.931 -0.0057633677 0.99994159 0.0091403415 6.2719125e+19
1.465 -0.045000002 -3.937 -0.03280719 0.99945158 0.004487596 6.2719125e+19
1.4725001 -0.045000002 -3.9324999 -0.029068321 0.99941963 0.017759493 6.2719125e+19
1.568 -0.039000001 -3.938 -0.0010752348 0.99999797 0.0016877104 6.2719125e+19
1.5764999 -0.039000001 -3.9324999 0.0014630898 0.99999642 -0.0022415288 6.2719125e+19
1.675 -0.032000002 -3.9365001 -0.018525138 0.99974793 -0.012686382 6.2719125e+19
1.683 -0.032000002 -3.931 -0.010567683 0.9999432 0.0013677387 6.2719125e+19
1.776 -0.026000001 -3.938 -0.0025860693 0.99998903 0.0038945894 6.2719125e+19
1.7844999 -0.026000001 -3.9330001 -0.0052657453 -0.99995309 0.0081292344 6.2719125e+19
1.8824999 -0.018999999 -3.9365001 -0.18698457 -0.93102264 0.31342226 6.2719125e+19
1.89 -0.018999999 -3.9319999 0.0027281109 -0.99949682 0.031601481 6.2719125e+19
1.994 -0.013 -3.9319999 0.00076650019 0.99999917 -0.0010760482 6.2719125e+19
-1.9560001 -0.259 -3.9285002 -0.21882932 0.83909756 0.49802509 6.2719125e+19
-1.944 -0.259 -3.924 0.0013639951 0.99836606 -0.057125688 6.2719125e+19
-1.8559999 -0.25299999 -3.9300001 -0.031780533 0.99918216 0.025000529 6.2719125e+19
-1.848 -0.25299999 -3.927 -0.12992382 -0.91776931 0.37525913 6.2719125e+19
-1.84 -0.252 -3.924 -0.023097213 0.99970031 -0.0081176171 6.2719125e+19
-1.745 -0.24600001 -3.927 -0.0038913407 -0.99590629 0.09030816 6.2719125e+19
-1.737 -0.24600001 -3.924 -0.011031097 0.99906933 -0.041699842 6.2719125e+19
-1.729 -0.24600001 -3.921 -0.3181532 -0.51805592 0.79397517 6.2719125e+19
-1.641 -0.23999999 -3.928 -0.035794001 0.99915946 0.019979276 6.2719125e+19
-1.633 -0.23899999 -3.924 -0.0037997842 0.99866176 -0.051577069 6.2719125e+19
-1.625 -0.23899999 -3.921 -0.010320301 0.99922043 -0.038105838 6.2719125e+19
-1.538 -0.233 -3.928 -0.0087923976 0.99940002 -0.03350053 6.2719125e+19
-1.526 -0.233 -3.9225001 -0.010785594 0.99902886 -0.042720929 6.2719125e+19
-1.434 -0.227 -3.928 -0.005387017 0.99917227 -0.040319782 6.2719125e+19
-1.426 -0.227 -3.925 -0.2980378 -0.59375572 0.74741393 6.2719125e+19
-1.419 -0.226 -3.921 -0.058945265 -0.97917819 0.1942564 6.2719125e+19
-1.331 -0.22 -3.928 -0.0006679793 0.99864042 -0.05212298 6.2719125e+19
-1.323 -0.22 -3.925 -0.39874437 0.11897719 0.90931141 6.2719125e+19
-1.3150001 -0.22 -3.9219999 -0.046421692 -0.98776519 0.14887898 6.2719125e+19
-1.227 -0.214 -3.928 -0.015581535 0.99967122 -0.020364903 6.2719125e+19
-1.2160001 -0.21349999 -3.9235001 -0.0062431786 0.99891275 -0.046199702 6.2719125e+19
-1.124 -0.207 -3.9289999 -0.037431467 0.99869943 0.034616787 6.2719125e+19
-1.1160001 -0.207 -3.925 -0.071814649 -0.98070526 0.18182375 6.2719125e+19
-1.109 -0.207 -3.9219999 0.00028055278 0.99890149 -0.046858508 6.2719125e+19
-1.0165 -0.20100001 -3.9275 -0.035244755 -0.99331099 0.10995961 6.2719125e+19
-1.005 -0.20100001 -3.9219999 -0.012889035 0.99927568 -0.035805602 6.2719125e+19
-0.91600001 -0.19400001 -3.9289999 -0.015923945 0.99945247 -0.029004339 6.2719125e+19
-0.90549999 -0.19400001 -3.924 -0.019544341 -0.99674791 0.07817699 6.2719125e+19
-0.81300002 -0.18799999 -3.9289999 -0.025295081 -0.99589282 0.086935021 6.2719125e+19
-0.80500001 -0.18799999 -3.9260001 0.0012858994 -0.99874377 0.050092246 6.2719125e+19
-0.79799998 -0.18799999 -3.9230001 -0.037669841 -0.9886241 0.145614 6.2719125e+19
-0.70550001 -0.18099999 -3.9275 -0.027098794 0.99963212 -0.0011024092 6.2719125e+19
-0.69499999 -0.18099999 -3.9230001 -0.064641915 -0.9817847 0.17866211 6.2719125e+19
-0.60500002 -0.175 -3.9300001 -0.024338188 0.99834591 0.052085403 6.2719125e+19
-0.59450001 -0.175 -3.9245 -0.18045749 -0.88764924 0.42369077 6.2719125e+19
-0.50199997 -0.168 -3.9300001 -0.025021987 0.99961942 -0.011612894 6.2719125e+19
-0.495 -0.168 -3.927 -0.0068438593 0.99920422 -0.03929526 6.2719125e+19
-0.48800001 -0.168 -3.9230001 -0.0089885527 -0.99865311 0.05110018 6.2719125e+19
-0.39450002 -0.162 -3.9285002 -0.069541 -0.98428071 0.16234392 6.2719125e+19
-0.384 -0.162 -3.9230001 -0.010159034 0.99947941 -0.030621845 6.2719125e+19
-0.294 -0.156 -3.9300001 -0.068357922 0.99440217 0.080570318 6.2719125e+19
-0.2845 -0.155 -3.9254999 -0.10834637 0.98107767 0.16046059 6.2719125e+19
-0.184 -0.149 -3.927 -0.013079206 0.99957365 0.026105272 6.2719125e+19
-0.17399999 -0.149 -3.9225001 -0.033212774 0.99909896 0.026423894 6.2719125e+19
-0.077 -0.142 -3.9254999 -0.004362307 -0.99802649 0.062642455 6.2719125e+19
-0.067000002 -0.142 -3.921 -0.0055653197 0.99977881 -0.020282829 6.2719125e+19
0.023 -0.13600001 -3.928 0 1 0 6.2719125e+19
0.033 -0.13600001 -3.9225001 -0.017606372 0.9998433 -0.0018432715 6.2719125e+19
0.127 -0.13 -3.928 -0.090001293 -0.96959543 0.22756208 6.2719125e+19
0.133 -0.12899999 -3.925 -0.023094587 0.99969006 -0.009298237 6.2719125e+19
0.14 -0.12899999 -3.921 -0.42618477 0.43186632 0.79489493 6.2719125e+19
0.2335 -0.123 -3.9264998 -0.036496818 -0.99688339 0.069939494 6.2719125e+19
0.243 -0.123 -3.921 -0.1649252 0.94093817 0.29569432 6.2719125e+19
0.33399999 -0.117 -3.928 -0.021351058 -0.9958719 0.08822275 6.2719125e+19
0.34350002 -0.1165 -3.9235001 -0.028530836 0.99959058 -0.0021538134 6.2719125e+19
0.43799999 -0.11 -3.9289999 -0.0048423754 -0.99940687 0.034095045 6.2719125e+19
0.44400001 -0.11 -3.925 0.0082900357 0.99984843 -0.015305812 6.2719125e+19
0.44999999 -0.11 -3.9219999 -0 1 -0 6.2719125e+19
0.54449999 -0.104 -3.927 -0.02162672 -0.99452639 0.10222276 6.2719125e+19
0.55400002 -0.103 -3.9219999 -0.024398178 0.99969316 -0.0042651216 6.2719125e+19
0.64499998 -0.097000003 -3.9289999 -0.12925628 0.96906203 0.21026553 6.2719125e+19
0.65400004 -0.097000003 -3.924 0.0050506294 0.99994743 -0.008925193 6.2719125e+19
0.74900001 -0.090999998 -3.9289999 -0.056156918 0.99636555 0.064048052 6.2719125e+19
0.755 -0.090999998 -3.9260001 -0.082715191 0.99154967 0.099937096 6.2719125e+19
0.76099998 -0.090999998 -3.9230001 -0.045563079 -0.99006373 0.13303296 6.2719125e+19
0.85549998 -0.083999999 -3.9275 -0.017624943 -0.99939626 0.029942183 6.2719125e+19
0.86400002 -0.083999999 -3.9230001 0.0030487194 0.99998111 -0.0053352583 6.2719125e+19
0.95599997 -0.078000002 -3.9300001 -0.027947485 0.99907875 0.032565586 6.2719125e+19
0.96500003 -0.078000002 -3.9245 -0.047151968 0.99811733 0.039223891 6.2719125e+19
1.0599999 -0.071000002 -3.9300001 -0.009528595 0.99992615 -0.0075440868 6.2719125e+19
1.066 -0.071000002 -3.927 0.0076112519 0.99988627 -0.013019247 6.2719125e+19
1.071 -0.071000002 -3.9230001 0 1 0 6.2719125e+19
1.1665001 -0.064999998 -3.9285002 0 1 0 6.2719125e+19
1.175 -0.064999998 -3.9230001 -0.097850196 -0.97708267 0.18903637 6.2719125e+19
1.268 -0.057999998 -3.9300001 -0.025587481 0.99960291 0.011802437 6.2719125e+19
1.2755001 -0.057999998 -3.9254999 -0 1 -0 6.2719125e+19
1.377 -0.052000001 -3.927 -0.0057633677 0.99994159 0.0091403415 6.2719125e+19
1.3845 -0.052000001 -3.9225001 -0.012785795 -0.99970931 0.020440528 6.2719125e+19
1.483 -0.045000002 -3.9254999 -0.0086675594 0.99986756 0.013777141 6.2719125e+19
1.4910001 -0.045000002 -3.921 0.0027494235 0.99998671 -0.004358842 6.2719125e+19
1.5864999 -0.039000001 -3.9260001 0.0014674283 0.99999636 -0.0022585634 6.2719125e+19
1.594 -0.039000001 -3.921 -0.0029155565 0.99998552 0.0045187487 6.2719125e+19
1.688 -0.032000002 -3.928 -0.027647875 0.99924266 0.027381413 6.2719125e+19
1.6954999 -0.032000002 -3.9229999 -0 1 -0 6.2719125e+19
1.7945001 -0.026000001 -3.9264998 -0.0042550005 0.99996871 0.0066778683 6.2719125e+19
1.802 -0.026000001 -3.921 -0.065877713 -0.99282694 0.099772856 6.2719125e+19
1.895 -0.018999999 -3.928 -0.077770479 0.99249983 0.09431763 6.2719125e+19
1.9024999 -0.018999999 -3.9235001 -0.0015070952 0.99999636 0.0022273981 6.2719125e+19
-1.9349999 -0.259 -3.9200001 -0.028890984 0.99958169 0.0013087624 6.2719125e+19
-1.927 -0.25799999 -3.9170001 -0.025205642 -0.99150217 0.12762485 6.2719125e+19
-1.919 -0.25799999 -3.914 -0.078025356 0.99144691 0.10461812 6.2719125e+19
-1.832 -0.252 -3.9200001 -0.070758514 0.99388969 0.084714025 6.2719125e+19
-1.824 -0.252 -3.9170001 -0.024809146 0.99935097 -0.026116209 6.2719125e+19
-1.816 -0.252 -3.914 -0.036995586 -0.98773038 0.15172324 6.2719125e+19
-1.721 -0.245 -3.9170001 -0.015574601 0.99951178 -0.027084369 6.2719125e+19
-1.7130001 -0.245 -3.914 -0.0039317757 0.99828798 -0.058357596 6.2719125e+19
